ply
format ascii 1.0
comment Created by Open3D
element vertex 1124
property double x
property double y
property double z
property double nx
property double ny
property double nz
property uchar red
property uchar green
property uchar blue
end_header
13.8255 299.061 -94.6228 0 0 1 189 180 147
28.6313 298.755 -88.4386 0 0 1 140 139 100
26.2156 284.787 -94.7273 0 0 1 225 228 231
13.3057 288.358 -94.9106 0 0 1 216 219 222
30.9276 271.996 -94.8149 0 0 1 192 196 197
20.1797 283.317 -94.7204 0 0 1 226 229 230
5.56424 284.788 -94.865 0 0 1 227 228 229
10.8122 299.596 -94.6167 0 0 1 182 179 130
26.4082 282.056 -94.6699 0 0 1 220 223 227
22.3371 291.086 -89.0249 0 0 1 117 151 84
29.5814 292.027 -94.3915 0 0 1 107 108 91
6.77941 290.998 -94.5717 0 0 1 204 203 203
14.7153 291.242 -94.7565 0 0 1 209 208 206
23.5443 282.27 -94.7601 0 0 1 224 228 230
21.7795 280.28 -94.8678 0 0 1 236 235 234
28.7557 275.129 -94.7659 0 0 1 206 204 205
27.9595 293.51 -87.2092 0 0 1 159 158 152
6.67729 303.694 -94.7683 0 0 1 153 143 113
5.31557 301.306 -94.7801 0 0 1 218 214 187
4.55726 285.714 -94.6807 0 0 1 222 223 225
18.3213 295.595 -88.2046 0 0 1 123 144 97
14.7258 303.173 -85.9463 0 0 1 103 126 71
16.5896 285.965 -94.676 0 0 1 218 222 226
23.6909 298.168 -84.9999 0 0 1 95 115 58
15.4823 289.31 -94.6798 0 0 1 212 214 217
14.4432 292.306 -94.7785 0 0 1 196 196 198
21.0658 278.066 -94.8059 0 0 1 208 204 172
27.8336 293.425 -92.7598 0 0 1 184 181 149
10.3476 287.008 -94.6402 0 0 1 218 223 226
27.8501 301.225 -89.0936 0 0 1 66 64 54
23.208 296.828 -85.3964 0 0 1 116 137 75
6.71781 304.346 -90.4851 0 0 1 103 130 89
22.5647 270.633 -94.8 0 0 1 183 187 188
13.3466 288.084 -94.7043 0 0 1 218 221 224
7.69683 279.696 -94.8949 0 0 1 236 237 243
27.5508 275.631 -94.779 0 0 1 214 213 213
17.369 282.026 -94.739 0 0 1 202 196 170
10.5134 287.013 -94.663 0 0 1 220 223 227
4.69934 276.487 -94.701 0 0 1 213 216 220
26.1536 283.527 -94.6544 0 0 1 221 223 227
12.022 298.267 -94.6453 0 0 1 185 178 133
28.272 297.908 -89.3276 0 0 1 121 118 97
26.0899 281.94 -94.6762 0 0 1 223 226 228
6.07119 302.342 -94.8581 0 0 1 206 198 171
22.1144 282.031 -94.794 0 0 1 226 228 230
8.77253 291.395 -94.6987 0 0 1 204 202 204
12.2565 289.61 -94.7573 0 0 1 209 209 212
27.5461 286.773 -94.6099 0 0 1 201 200 197
9.01914 303.232 -94.6648 0 0 1 170 162 121
25.1889 278.97 -94.7793 0 0 1 220 222 225
10.2863 284.842 -94.7923 0 0 1 219 223 227
22.6431 275.703 -94.8018 0 0 1 176 175 120
11.2432 270.316 -94.7842 0 0 1 173 167 137
9.31697 302.034 -94.6323 0 0 1 194 189 150
9.10358 285.416 -94.7214 0 0 1 221 226 230
20.9618 284.626 -94.7087 0 0 1 224 228 229
27.18 298.807 -90.1911 0 0 1 111 110 78
18.3276 301.879 -86.3298 0 0 1 81 105 78
9.1264 281.656 -94.6924 0 0 1 241 242 243
27.3442 283.989 -94.8181 0 0 1 224 226 227
31.5017 275.204 -94.7631 0 0 1 217 221 223
4.54954 280.281 -94.7077 0 0 1 214 219 225
12.9377 300.096 -94.6224 0 0 1 179 173 129
16.5206 291.348 -94.5489 0 0 1 204 202 202
13.7491 286.003 -94.7083 0 0 1 217 222 226
23.508 283.544 -94.7841 0 0 1 224 228 229
6.96388 280.847 -94.8726 0 0 1 216 220 224
21.8837 291.836 -88.2209 0 0 1 78 101 58
9.27191 270.489 -94.676 0 0 1 165 162 126
27.3075 279.16 -94.8003 0 0 1 222 224 228
6.18122 283.042 -94.7267 0 0 1 222 226 230
11.6885 289.089 -94.7175 0 0 1 210 210 212
24.0589 303.089 -87.9259 0 0 1 125 153 95
14.5311 287.824 -94.6996 0 0 1 220 222 226
21.5769 297.594 -84.2837 0 0 1 125 147 88
10.2914 290.65 -94.54 0 0 1 204 201 202
16.9902 300.421 -85.6924 0 0 1 100 118 79
12.8427 288.207 -94.6951 0 0 1 218 219 223
25.4368 280.443 -94.81 0 0 1 224 227 229
22.5312 297.5 -84.8239 0 0 1 105 125 67
27.4443 296.353 -86.7168 0 0 1 96 103 69
11.2181 288.688 -94.5909 0 0 1 212 212 215
18.1611 299.153 -85.3624 0 0 1 114 136 99
31.345 279.962 -94.8751 0 0 1 217 221 225
15.3804 299.996 -87.1217 0 0 1 94 120 84
11.4039 281.895 -94.8319 0 0 1 222 226 228
5.70474 279.524 -94.882 0 0 1 198 203 206
12.1202 270.359 -94.7331 0 0 1 196 194 183
14.8982 292.865 -94.7142 0 0 1 201 199 198
25.77 290.502 -94.6059 0 0 1 166 150 122
9.52406 273.388 -94.7364 0 0 1 197 194 156
15.2717 301.232 -86.7872 0 0 1 110 139 94
28.0062 290.693 -93.7894 0 0 1 149 197 208
7.51432 292.218 -94.5524 0 0 1 187 186 151
31.4773 274.596 -94.793 0 0 1 217 220 223
10.9541 283.148 -94.9727 0 0 1 180 181 182
23.0173 282.88 -94.6189 0 0 1 225 228 229
16.9902 287.014 -94.6798 0 0 1 221 225 229
13.1354 272.963 -94.8029 0 0 1 183 181 140
14.1041 298.644 -94.7512 0 0 1 183 178 137
18.4729 272.448 -94.8168 0 0 1 181 175 146
27.2143 279.348 -94.777 0 0 1 222 223 227
15.5095 290.647 -94.6152 0 0 1 204 203 205
27.3853 282.311 -94.6634 0 0 1 220 224 225
6.71325 280.008 -94.8033 0 0 1 214 217 222
6.36819 278.354 -94.8643 0 0 1 213 218 222
12.4335 288.835 -94.6847 0 0 1 213 213 216
7.53506 286.767 -94.8196 0 0 1 213 216 219
25.5891 284.14 -94.6678 0 0 1 216 218 220
24.3789 281.034 -94.7133 0 0 1 223 227 229
12.5632 283.75 -94.8676 0 0 1 217 220 224
13.2392 291.161 -94.7085 0 0 1 206 202 204
10.484 287.217 -94.6997 0 0 1 218 221 225
28.7007 279.123 -94.8064 0 0 1 223 227 230
11.0284 285.468 -94.8092 0 0 1 221 226 230
15.0632 297.824 -94.6068 0 0 1 178 176 130
7.59623 301.846 -94.7186 0 0 1 205 200 166
12.324 282.014 -94.7438 0 0 1 167 155 135
8.24627 279.382 -95.0148 0 0 1 239 245 250
18.8832 290.876 -94.6288 0 0 1 201 200 198
15.8238 285.909 -94.7856 0 0 1 218 222 225
5.44857 286.44 -94.7745 0 0 1 214 217 219
24.1811 280.786 -94.7992 0 0 1 224 226 228
11.1163 296.753 -94.6708 0 0 1 182 180 142
6.68945 280.08 -94.7004 0 0 1 215 218 223
7.03987 282.42 -94.8491 0 0 1 222 225 229
23.931 284.625 -94.7312 0 0 1 220 224 225
22.2304 293.936 -85.6571 0 0 1 116 140 89
8.63565 286.31 -94.6655 0 0 1 216 220 223
30.8689 277.185 -94.7192 0 0 1 219 222 226
20.7369 299.761 -84.5037 0 0 1 97 113 85
13.4371 286.368 -94.8771 0 0 1 230 231 233
26.0822 284.248 -94.7609 0 0 1 223 227 230
29.7319 280.469 -94.671 0 0 1 218 221 223
12.4679 291.292 -94.7016 0 0 1 204 203 202
11.3899 270.55 -94.7525 0 0 1 162 159 128
13.8135 293.21 -94.5996 0 0 1 218 216 213
5.3935 300.74 -94.792 0 0 1 199 198 158
24.5567 275.722 -94.8236 0 0 1 182 174 133
17.4219 285.559 -94.7857 0 0 1 226 229 231
13.5181 291.19 -94.6036 0 0 1 202 201 203
17.9809 287.341 -94.6968 0 0 1 222 223 225
11.3808 286.327 -94.7262 0 0 1 224 227 231
17.7989 288.79 -94.7037 0 0 1 214 216 219
15.0345 291.318 -94.7644 0 0 1 207 208 210
8.81225 301.435 -94.6945 0 0 1 206 201 167
18.6386 271.294 -94.8107 0 0 1 190 189 187
7.51838 292.387 -94.6269 0 0 1 184 180 136
28.8073 277.021 -94.7223 0 0 1 219 221 225
28.4524 299.148 -88.2019 0 0 1 99 100 78
26.7475 279.599 -94.868 0 0 1 222 226 229
6.04374 274.255 -94.7412 0 0 1 209 208 195
22.8093 297.133 -85.3401 0 0 1 117 145 75
14.7787 290.783 -94.7429 0 0 1 199 199 201
5.24976 301.919 -94.8432 0 0 1 197 190 153
23.5825 273.551 -94.8168 0 0 1 187 185 153
29.4726 275.818 -94.8235 0 0 1 217 219 220
11.8375 289.053 -94.683 0 0 1 211 210 213
30.957 275.723 -94.7085 0 0 1 219 223 224
24.6624 303.657 -87.4849 0 0 1 111 131 79
18.4151 288.745 -94.6454 0 0 1 213 218 219
31.5525 277.505 -94.7538 0 0 1 221 224 228
16.9385 293.173 -94.666 0 0 1 213 211 208
16.9737 286.29 -94.7256 0 0 1 220 224 228
16.5639 287.314 -94.7667 0 0 1 221 225 228
26.7153 285.062 -94.8431 0 0 1 224 226 231
13.1075 282.327 -94.9053 0 0 1 168 178 182
23.068 278.06 -94.8414 0 0 1 202 197 169
29.0465 280.568 -94.9836 0 0 1 220 225 228
20.8871 281.732 -94.7558 0 0 1 222 224 225
19.2349 282.525 -94.7722 0 0 1 233 235 236
16.7547 286.994 -94.8415 0 0 1 222 225 230
25.3685 282.02 -94.8656 0 0 1 223 227 228
6.13465 272.232 -94.7259 0 0 1 219 218 201
20.9113 292.433 -88.8384 0 0 1 115 146 88
19.3351 282.391 -94.8007 0 0 1 231 233 234
14.0645 302.83 -86.4247 0 0 1 97 129 70
29.4705 276.22 -94.8238 0 0 1 218 219 221
7.36397 270.681 -94.6939 0 0 1 158 154 111
6.58864 280.955 -94.7745 0 0 1 216 221 225
20.9426 286.365 -94.6622 0 0 1 219 221 223
5.81505 301.012 -94.7104 0 0 1 190 189 146
29.5456 282.84 -94.6037 0 0 1 221 222 225
10.4133 274.111 -94.7877 0 0 1 165 159 106
30.899 279.869 -94.7976 0 0 1 216 218 222
31.4697 277.521 -94.6816 0 0 1 219 224 228
25.6715 277.095 -94.7766 0 0 1 223 224 225
29.2898 273.337 -94.7865 0 0 1 210 209 207
22.4184 293.35 -86.2393 0 0 1 78 107 66
29.4138 287.066 -94.6313 0 0 1 193 190 157
17.336 288.035 -94.7948 0 0 1 220 221 225
23.1122 288.054 -94.7252 0 0 1 208 209 210
23.6389 292.589 -86.6562 0 0 1 118 150 89
27.5718 282.823 -94.7433 0 0 1 216 217 222
17.7474 295.996 -94.756 0 0 1 171 166 127
24.507 279.738 -94.7699 0 0 1 220 224 227
29.6306 303.614 -87.1316 0 0 1 104 156 89
8.02638 284.424 -94.857 0 0 1 222 226 230
12.5448 288.288 -94.651 0 0 1 217 218 222
14.909 293.719 -94.6997 0 0 1 196 191 158
24.8149 274.74 -94.8526 0 0 1 172 170 121
20.169 283.487 -94.7748 0 0 1 225 229 232
27.518 299.119 -88.1276 0 0 1 103 106 90
13.0137 287.467 -94.6003 0 0 1 222 226 229
13.8435 290.241 -94.7447 0 0 1 206 206 207
12.1427 291.603 -94.6662 0 0 1 199 198 199
10.875 301.067 -94.6609 0 0 1 192 187 146
23.8097 298.115 -85.3904 0 0 1 91 115 56
31.5591 278.84 -94.7176 0 0 1 220 224 226
28.4419 304.233 -89.1022 0 0 1 71 103 77
7.91449 287.62 -94.614 0 0 1 215 216 218
30.1097 276.56 -94.7338 0 0 1 222 225 229
21.6605 285.855 -94.732 0 0 1 219 222 225
13.4533 283.157 -94.7785 0 0 1 246 246 247
27.5397 285.932 -94.6581 0 0 1 209 209 210
5.93934 302.478 -94.7192 0 0 1 207 203 172
26.5972 300.899 -88.6331 0 0 1 118 116 85
7.61024 286.289 -94.7747 0 0 1 216 218 221
30.6776 280.915 -94.7132 0 0 1 217 219 222
8.12983 286.704 -94.664 0 0 1 214 218 221
26.2949 277.382 -94.7183 0 0 1 219 221 225
5.19951 275.018 -94.7078 0 0 1 216 220 223
31.0122 274.163 -94.728 0 0 1 218 221 223
15.4018 289.261 -94.7457 0 0 1 213 215 217
4.65417 271.28 -94.7621 0 0 1 207 211 213
14.1551 285.732 -94.8031 0 0 1 218 221 226
31.2893 272.768 -94.8519 0 0 1 199 198 199
7.01696 285.88 -94.6815 0 0 1 216 218 221
28.6858 280.793 -94.7023 0 0 1 218 222 226
18.5911 284.479 -94.753 0 0 1 222 225 227
16.0123 272.42 -94.8813 0 0 1 180 179 135
5.43623 282.725 -94.7385 0 0 1 223 226 231
19.078 269.357 -94.8565 0 0 1 180 185 186
21.2263 280.349 -94.8906 0 0 1 227 238 239
10.9788 272.362 -94.7529 0 0 1 137 139 98
15.5771 282.32 -94.8009 0 0 1 178 167 163
8.29296 289.011 -94.6174 0 0 1 210 210 212
14.3683 302.578 -86.3684 0 0 1 116 144 71
5.70558 275.155 -94.8057 0 0 1 228 231 233
6.78828 278.571 -94.8133 0 0 1 229 235 236
15.7891 292.982 -94.6164 0 0 1 206 202 201
26.0188 300.92 -88.612 0 0 1 94 91 73
26.4148 295.497 -86.0649 0 0 1 110 114 91
18.9704 283.778 -94.7546 0 0 1 225 228 230
27.124 280.807 -94.8854 0 0 1 224 228 232
24.541 284.546 -94.7136 0 0 1 216 219 222
11.96 284.982 -94.9002 0 0 1 219 222 226
12.4646 274.388 -94.8798 0 0 1 147 154 92
5.15192 303.616 -94.686 0 0 1 179 167 137
16.2807 287.685 -94.7166 0 0 1 218 223 226
11.6402 302.469 -91.4821 0 0 1 175 171 129
19.6289 292.422 -94.5704 0 0 1 197 195 192
6.77232 281.051 -94.7397 0 0 1 215 220 224
17.5404 290.946 -94.5609 0 0 1 205 203 203
7.81785 289.482 -94.7516 0 0 1 216 215 220
26.5312 290.448 -94.6322 0 0 1 161 142 110
11.7625 302.1 -94.7483 0 0 1 189 176 137
8.63649 290.028 -94.7256 0 0 1 205 204 206
26.7234 297.832 -86.6443 0 0 1 157 154 134
9.98429 290.208 -94.651 0 0 1 203 203 205
30.1055 295.489 -87.0319 0 0 1 98 94 82
20.1665 294.988 -86.1818 0 0 1 78 101 60
28.6852 286.99 -94.5646 0 0 1 208 201 189
25.1117 290.141 -94.6824 0 0 1 183 179 166
9.20069 290.575 -94.6941 0 0 1 211 208 208
5.14864 278.538 -94.6775 0 0 1 213 218 222
16.0096 292.119 -94.6504 0 0 1 195 194 195
29.5728 276.176 -94.7493 0 0 1 217 219 221
29.1035 299.149 -89.8123 0 0 1 84 103 83
7.17896 275.686 -94.663 0 0 1 186 184 143
29.6359 280.297 -94.6482 0 0 1 219 222 225
23.462 293.076 -85.9348 0 0 1 103 138 83
13.842 293.826 -94.6329 0 0 1 196 192 155
31.3855 277.775 -94.651 0 0 1 221 225 229
23.1655 294.9 -86.1794 0 0 1 89 110 77
16.9798 272.053 -94.8031 0 0 1 179 174 144
10.3073 301.322 -94.682 0 0 1 194 190 155
27.0852 298.817 -87.6315 0 0 1 105 106 87
5.99841 279.036 -94.8264 0 0 1 213 217 222
28.3607 290.166 -93.7795 0 0 1 192 235 242
11.3899 291.885 -94.5598 0 0 1 189 188 189
17.0282 293.81 -94.6278 0 0 1 188 186 147
8.83996 280.627 -94.9602 0 0 1 235 238 241
7.69602 290.127 -94.5831 0 0 1 211 210 210
20.6453 301.843 -86.6843 0 0 1 102 107 83
6.25493 273.255 -94.7778 0 0 1 186 181 141
26.4432 302.639 -89.2476 0 0 1 93 106 76
16.4681 289.121 -94.5965 0 0 1 207 210 213
20.9503 283.588 -94.7636 0 0 1 225 228 230
12.4353 283.145 -94.7811 0 0 1 217 223 232
9.94364 291.477 -94.7505 0 0 1 194 193 192
4.28554 274.454 -94.7816 0 0 1 210 214 218
5.02564 281.785 -94.8698 0 0 1 228 233 239
12.5204 285.709 -94.7087 0 0 1 219 222 227
12.5695 287.333 -94.7357 0 0 1 221 225 229
23.1156 297.4 -85.2102 0 0 1 91 117 65
4.60194 286.865 -94.8265 0 0 1 193 194 195
9.7409 302.671 -94.636 0 0 1 176 165 115
22.7332 283.62 -94.8003 0 0 1 226 228 230
8.21571 292.215 -94.7037 0 0 1 216 214 207
18.0571 294.846 -94.5791 0 0 1 167 164 123
28.4414 282.31 -94.6932 0 0 1 217 221 224
11.5322 290.528 -94.6557 0 0 1 202 200 202
24.9395 281.414 -94.8327 0 0 1 225 227 229
21.3845 303.259 -87.0633 0 0 1 102 110 83
27.1291 277.063 -94.7437 0 0 1 222 224 227
20.4395 288.717 -94.5943 0 0 1 209 213 216
24.3008 292.848 -86.8971 0 0 1 103 133 88
10.3222 288.185 -94.6763 0 0 1 212 212 214
24.5471 278.191 -94.7082 0 0 1 221 221 222
26.3073 300.245 -88.141 0 0 1 113 114 93
9.24517 300.38 -94.7901 0 0 1 192 187 146
15.7398 288.447 -94.6729 0 0 1 219 223 226
20.7581 300.451 -84.583 0 0 1 86 102 81
6.33046 275.079 -94.7277 0 0 1 193 191 181
16.0973 282.41 -94.8062 0 0 1 201 197 193
12.4305 290.969 -94.5846 0 0 1 199 198 200
11.5994 290.567 -94.7604 0 0 1 202 200 202
12.4452 294.751 -94.5418 0 0 1 168 167 113
19.102 296.337 -86.2128 0 0 1 80 102 54
27.9396 287.915 -94.6119 0 0 1 207 204 191
19.0893 285.357 -94.7531 0 0 1 226 228 230
8.4088 288.753 -94.6195 0 0 1 211 212 214
15.7192 291.36 -94.7244 0 0 1 204 202 201
26.8839 280.862 -94.8443 0 0 1 220 226 230
23.8631 296.793 -85.8639 0 0 1 108 134 78
6.84652 276.04 -94.8321 0 0 1 175 172 151
4.6077 276.805 -94.9465 0 0 1 168 174 177
15.8445 293.455 -94.5855 0 0 1 215 210 194
10.6075 302.266 -94.5957 0 0 1 169 164 119
18.7852 275.668 -94.7893 0 0 1 151 162 93
23.2173 283.169 -94.7392 0 0 1 224 228 230
10.4342 282.573 -94.9411 0 0 1 216 214 218
26.4178 297.413 -86.3313 0 0 1 142 135 107
7.08173 288.105 -94.7228 0 0 1 212 212 213
12.1983 285.187 -94.7828 0 0 1 218 222 226
18.5531 283.15 -94.8068 0 0 1 224 228 229
19.7702 282.32 -94.8712 0 0 1 224 227 229
12.5097 285.482 -95.0005 0 0 1 223 227 232
14.4099 292.513 -94.6863 0 0 1 198 196 196
17.3355 288.223 -94.6765 0 0 1 220 221 225
14.2653 269.681 -94.7595 0 0 1 169 173 174
10.0605 283.346 -94.7312 0 0 1 217 222 226
4.34792 276.169 -94.7982 0 0 1 212 216 221
6.29293 290.116 -94.6366 0 0 1 210 209 209
10.6219 273.922 -94.7932 0 0 1 162 154 107
5.3509 273.264 -94.7927 0 0 1 210 214 216
26.2283 277.843 -94.792 0 0 1 220 221 225
10.6907 302.197 -94.6602 0 0 1 178 173 131
25.3171 290.484 -94.5756 0 0 1 181 165 136
27.3496 297.4 -87.1076 0 0 1 151 150 110
28.4338 299.031 -88.4484 0 0 1 94 92 70
27.4363 270.982 -94.8311 0 0 1 205 206 208
12.7124 286.556 -94.735 0 0 1 223 227 231
21.9179 292.583 -87.423 0 0 1 86 106 58
26.0576 301.078 -88.5882 0 0 1 96 91 65
25.2034 282.929 -94.8079 0 0 1 221 224 225
13.3265 296.006 -94.6626 0 0 1 167 164 116
27.5653 289.65 -94.5746 0 0 1 182 170 133
27.3481 298.301 -87.3871 0 0 1 114 114 91
11.6029 288.127 -94.6811 0 0 1 218 219 222
7.50887 279.14 -94.8876 0 0 1 224 225 237
12.8545 296.851 -94.7086 0 0 1 173 168 135
17.1802 296.802 -94.7799 0 0 1 170 166 132
13.9432 271.152 -94.713 0 0 1 195 190 164
4.76661 304.518 -94.62 0 0 1 191 177 149
21.0898 279.752 -94.7676 0 0 1 213 208 178
5.04075 284.365 -94.8058 0 0 1 229 232 234
8.32523 302.468 -94.7825 0 0 1 181 171 131
16.5432 293.717 -94.629 0 0 1 191 185 158
23.3736 283.607 -94.6408 0 0 1 225 229 231
10.6246 300.611 -94.687 0 0 1 187 182 143
26.2359 302.192 -89.1059 0 0 1 120 136 98
15.0521 298.008 -94.6275 0 0 1 179 176 135
18.8753 299.666 -85.2782 0 0 1 93 106 84
7.11864 292.056 -94.6238 0 0 1 186 185 151
15.1662 272.215 -94.893 0 0 1 180 179 131
19.1793 295.974 -86.2636 0 0 1 98 124 67
31.3055 275.948 -94.7165 0 0 1 221 223 227
17.4283 302.663 -86.1544 0 0 1 92 128 73
10.8957 295.403 -94.6587 0 0 1 192 190 146
19.81 294.911 -87.5938 0 0 1 82 101 67
11.7695 300.685 -94.6369 0 0 1 176 171 123
20.3933 284.226 -94.6969 0 0 1 224 228 229
14.4575 288.394 -94.7447 0 0 1 219 222 225
6.81373 288.989 -94.6892 0 0 1 207 207 209
8.96583 280.527 -94.7484 0 0 1 225 238 248
22.6939 269.84 -94.8431 0 0 1 211 209 207
13.2581 271.186 -94.7613 0 0 1 169 168 123
6.58402 275.069 -94.7081 0 0 1 190 187 148
15.5555 271.963 -94.8085 0 0 1 177 175 124
6.84698 284.331 -94.6793 0 0 1 224 226 230
4.29883 273.35 -94.7354 0 0 1 213 216 220
30.6535 278.354 -94.7298 0 0 1 221 224 228
23.1826 295.481 -85.2159 0 0 1 97 114 72
22.6729 282.726 -94.787 0 0 1 226 228 230
23.3718 270.772 -94.8077 0 0 1 183 187 188
24.6782 296.674 -86.4434 0 0 1 100 105 78
15.2446 293.908 -94.5147 0 0 1 185 184 146
19.4271 288.146 -94.6461 0 0 1 222 224 225
30.7205 278.248 -94.5989 0 0 1 221 224 228
4.62069 282.367 -94.7005 0 0 1 221 225 229
29.1728 278.839 -94.7568 -0.396591 0.113035 0.91101 221 225 229
27.9683 279.708 -94.6963 0 0 1 222 226 230
23.854 299.449 -86.0215 0 0 1 94 120 74
13.6384 292.699 -94.5514 0 0 1 201 198 196
18.1446 293.641 -94.5557 0 0 1 199 193 172
26.6899 302.105 -89.1031 0 0 1 126 133 92
20.0103 293.658 -87.7449 0 0 1 104 129 81
8.45476 283.254 -94.677 0 0 1 218 222 227
14.0398 271.512 -94.7649 0 0 1 174 173 129
6.5437 277.788 -94.7475 0 0 1 224 230 237
31.2193 281.07 -94.6616 0 0 1 219 222 223
5.93812 271.34 -94.6824 0 0 1 212 214 216
9.83668 291.256 -94.7575 0 0 1 197 196 197
24.7594 279.82 -94.8059 0 0 1 223 225 229
5.62922 271.886 -94.8043 0 0 1 208 213 214
13.0171 290.004 -94.8355 0 0 1 208 208 211
30.9653 277.092 -94.7173 0 0 1 218 221 226
15.6764 289.152 -94.6563 0 0 1 211 212 216
24.5229 283.906 -94.7711 0 0 1 221 224 226
23.7076 279.032 -94.7532 0 0 1 221 222 223
28.344 300.785 -88.6427 0 0 1 74 69 55
24.6999 281.731 -94.788 0 0 1 224 227 228
22.0663 284.966 -94.7538 0 0 1 225 228 230
14.657 287.948 -94.8572 0 0 1 226 229 230
11.2413 297.235 -94.5977 0 0 1 162 158 112
26.8472 279.015 -94.7011 0 0 1 221 224 228
23.3464 291.996 -86.5859 0 0 1 129 154 89
9.76207 282.86 -94.7247 0 0 1 220 222 227
12.2768 301.705 -94.6352 0 0 1 172 171 120
11.9304 288.546 -94.637 0 0 1 215 216 219
29.046 277.093 -94.7377 0 0 1 220 223 228
29.9429 272.366 -94.7706 0 0 1 193 195 196
20.3506 289.002 -94.6086 0 0 1 211 212 214
8.27653 291.302 -94.6257 0 0 1 203 202 202
4.29684 289.09 -94.7266 0 0 1 198 197 195
13.4932 292.431 -94.699 0 0 1 199 198 198
6.78178 276.314 -94.8638 0 0 1 170 166 158
22.6208 279.012 -94.8329 0 0 1 231 226 218
15.0069 297.405 -94.5935 0 0 1 182 181 138
26.5967 289.906 -94.6254 0 0 1 165 147 119
29.3857 292.575 -94.4071 0 0 1 122 118 101
28.3285 273.438 -94.7235 0 0 1 197 199 200
31.0769 273.178 -94.8048 0 0 1 199 198 198
7.09329 291.643 -94.6447 0 0 1 233 230 229
26.2136 283.808 -94.8552 0 0 1 221 223 226
14.6442 302.016 -86.4382 0 0 1 119 151 73
24.7916 293.005 -87.5517 0 0 1 128 137 99
7.05722 269.322 -94.7941 0 0 1 167 157 132
29.3369 302.513 -89.1545 0 0 1 97 136 85
10.5324 285.262 -94.8063 0 0 1 220 225 229
12.5305 296.278 -94.526 0 0 1 167 165 126
6.56686 282.533 -94.7661 0 0 1 220 224 229
19.4064 288.845 -94.8356 0 0 1 191 192 193
15.7973 302.467 -85.7271 0 0 1 103 131 64
21.8871 279.584 -94.7574 0 0 1 199 193 163
11.4474 284.432 -94.8355 0 0 1 215 221 226
12.3761 297.763 -94.6231 0 0 1 184 176 138
9.22258 283.379 -94.6882 0 0 1 216 222 226
11.6176 269.945 -94.7536 0 0 1 203 202 202
15.3231 290.961 -94.7581 0 0 1 203 202 204
8.29025 284.889 -94.8115 0 0 1 222 226 231
5.56762 271.774 -94.7508 0 0 1 208 213 214
31.1397 273.387 -94.7583 0 0 1 201 200 199
26.1937 280.99 -94.8101 0 0 1 224 227 231
14.1496 284.404 -94.7144 0 0 1 216 221 225
9.47952 301.118 -94.7839 0 0 1 202 194 158
31.002 297.217 -94.79 0 0 1 137 157 96
12.0972 293.121 -94.5371 0 0 1 210 204 181
4.71945 297.624 -94.7021 0 0 1 181 179 138
28.0841 276.928 -94.6595 0 0 1 219 221 224
7.32803 279.985 -94.9889 0 0 1 223 228 232
7.1926 269.621 -94.6485 0 0 1 171 162 130
12.177 288.968 -94.5958 0 0 1 211 212 215
22.359 283.233 -94.6924 0 0 1 226 228 230
10.286 303.078 -94.7117 0 0 1 179 168 132
23.5391 293.397 -86.377 0 0 1 114 142 91
14.155 289.821 -94.6626 0 0 1 211 211 213
26.808 276.425 -94.7945 0 0 1 218 220 223
21.9511 295.973 -84.592 0 0 1 84 108 63
26.6584 301.254 -88.7838 0 0 1 110 111 94
18.0267 273.133 -94.864 0 0 1 178 177 127
4.32915 279.324 -94.7457 0 0 1 213 219 224
18.7773 285.11 -94.7156 0 0 1 224 227 230
10.0502 283.758 -94.6857 0 0 1 217 222 226
26.1177 301.322 -88.6245 0 0 1 105 110 78
24.0687 297.333 -85.152 0 0 1 117 139 83
28.4694 300.589 -88.6653 0 0 1 102 107 93
10.3779 287.413 -94.6279 0 0 1 216 219 222
4.3083 277.698 -94.7474 0 0 1 216 219 224
6.65113 281.881 -94.8342 0 0 1 216 220 225
8.27732 304.006 -94.7853 0 0 1 156 148 107
25.0695 280.399 -94.7848 0 0 1 224 228 230
7.9777 286.065 -94.7835 0 0 1 218 222 225
4.28851 297.096 -94.6082 0 0 1 170 168 123
22.5699 281.068 -94.7268 0 0 1 222 225 226
17.2225 296.361 -94.7809 0 0 1 170 167 131
16.0778 291.554 -94.6068 0 0 1 202 199 200
26.9374 282.777 -94.7114 0 0 1 220 224 227
14.3936 293.145 -94.5593 0 0 1 217 211 202
4.49516 273.664 -94.908 0 0 1 159 161 164
9.04067 290.025 -94.6476 0 0 1 206 204 205
15.4968 286.329 -94.7875 0 0 1 219 224 228
23.4584 295.927 -85.5901 0 0 1 114 137 79
15.7828 293.082 -94.6489 0 0 1 221 219 213
18.4421 284.119 -94.7254 0 0 1 225 228 230
12.4904 293.667 -94.6615 0 0 1 189 187 140
8.04048 273.751 -94.75 0 0 1 138 144 96
13.0985 291.226 -94.7449 0 0 1 212 212 214
7.70736 279.76 -94.772 0 0 1 236 237 243
4.35649 273.815 -94.7641 0 0 1 212 216 219
25.1855 283.829 -94.8222 0 0 1 221 224 226
9.65133 272.898 -94.7097 0 0 1 177 175 137
19.1099 299.652 -85.4241 0 0 1 107 119 88
6.00816 282.424 -94.9565 0 0 1 229 233 238
9.56182 285.176 -94.718 0 0 1 220 225 229
6.84929 270.57 -94.6691 0 0 1 161 151 114
20.7754 289.01 -94.7551 0 0 1 201 200 198
14.5887 298.47 -94.6116 0 0 1 189 184 149
13.352 297.846 -94.5884 0 0 1 199 198 159
19.5643 286.662 -94.76 0 0 1 223 226 227
4.88666 277.719 -94.7187 0 0 1 214 217 221
5.92589 274.84 -94.9701 0 0 1 171 164 161
14.9591 286.82 -94.7618 0 0 1 222 226 229
8.89941 272.564 -94.7602 0 0 1 141 154 93
9.50362 282.361 -94.7953 0 0 1 219 224 228
24.5493 278.486 -94.83 0 0 1 219 221 222
5.05673 276.839 -94.6497 0 0 1 211 215 219
5.38108 274.566 -94.8578 0 0 1 216 220 222
27.8885 281.381 -94.7247 0 0 1 220 223 225
23.5385 270.536 -94.9106 0 0 1 193 197 199
14.7535 289.119 -94.6689 0 0 1 215 217 220
27.7094 275.949 -94.7147 0 0 1 213 211 212
24.8782 280.505 -94.9358 0 0 1 223 226 228
14.1379 274.347 -94.8252 0 0 1 138 154 93
6.66215 275.529 -94.7026 0 0 1 194 189 161
20.2827 275.126 -94.7926 0 0 1 154 166 98
5.98146 284.83 -94.8038 0 0 1 223 226 229
28.9563 281.617 -94.6966 0 0 1 214 217 218
21.7261 282.595 -94.8663 0 0 1 225 228 230
15.107 293.591 -94.7083 0 0 1 202 192 169
29.1229 276.192 -94.7923 0 0 1 219 221 223
26.4823 285.014 -94.7756 0 0 1 225 227 230
21.5018 282.214 -94.8492 0 0 1 225 227 229
6.91813 277.402 -94.6908 0 0 1 207 223 225
13.7315 287.811 -94.6813 0 0 1 217 221 224
19.118 282.398 -94.8092 0 0 1 237 239 240
5.23494 287.115 -94.6419 0 0 1 212 211 213
23.894 275.835 -94.8315 0 0 1 182 177 133
9.92986 285.664 -94.6622 0 0 1 222 225 230
8.32053 280.442 -94.7766 0 0 1 245 244 245
9.07897 286.899 -94.8343 0 0 1 220 222 224
23.3732 292.761 -85.8975 0 0 1 125 159 94
29.5752 294.317 -95.7759 0 0 1 131 125 103
13.2326 291.248 -94.7899 0 0 1 206 202 203
24.1156 284.131 -94.8 0 0 1 222 225 227
15.7692 271.462 -94.8497 0 0 1 188 183 158
16.5846 282.306 -94.7672 0 0 1 205 202 175
27.3399 281.448 -94.8016 0 0 1 222 225 229
22.6612 286.071 -94.6648 0 0 1 222 226 227
4.82495 273.325 -94.8241 0 0 1 211 213 217
9.32615 279.648 -94.8961 0 0 1 162 159 126
10.9816 296.687 -94.589 0 0 1 175 171 132
19.9482 287.016 -94.7238 0 0 1 226 227 228
21.3091 293.739 -85.9531 0 0 1 128 149 91
10.8066 286.524 -94.6458 0 0 1 223 225 229
6.07403 304.601 -94.6591 0 0 1 159 141 112
10.5422 290.379 -94.7641 0 0 1 204 203 204
22.7221 297.223 -85.3007 0 0 1 123 137 75
6.76379 285.267 -94.6944 0 0 1 221 224 227
30.6337 271.691 -94.9327 0 0 1 192 193 194
22.3884 282.73 -94.8757 0 0 1 227 229 230
25.9735 282.997 -94.7445 0 0 1 221 225 229
30.1651 278.011 -94.8014 0 0 1 218 222 226
23.851 288.969 -94.6538 0 0 1 172 169 152
6.94106 280.62 -94.7174 0 0 1 215 219 223
6.19113 288.639 -94.6066 0 0 1 210 208 209
12.5187 299.789 -94.7603 0 0 1 175 164 122
7.35241 279.662 -94.7477 0 0 1 235 240 241
23.3069 295.316 -86.0796 0 0 1 109 130 74
11.4549 286.87 -94.9017 0 0 1 221 225 229
6.32836 303.412 -94.7826 0 0 1 176 165 133
29.8614 295.124 -93.6782 0 0 1 99 111 75
8.28437 270.791 -94.6795 0 0 1 159 151 113
26.11 284.817 -94.7449 0 0 1 225 228 231
29.526 276.46 -94.794 0 0 1 219 221 225
28.5099 278.591 -94.7274 0 0 1 222 227 230
30.627 303.567 -87.7452 0 0 1 110 144 88
9.14964 271.289 -94.7396 0 0 1 154 152 103
10.6198 284.293 -94.7758 0 0 1 217 222 226
26.8977 280.019 -94.8429 0 0 1 224 228 231
21.1805 282.15 -94.7648 0 0 1 224 226 228
9.25604 291.042 -94.6809 0 0 1 200 200 201
12.6139 286.824 -94.6878 0 0 1 222 226 230
14.8644 289.326 -94.7274 0 0 1 214 213 217
25.3319 282.473 -94.6376 0 0 1 223 226 228
19.8751 295.102 -87.2906 0 0 1 119 140 82
6.46066 277.576 -94.9211 0 0 1 231 235 237
6.27249 285.96 -94.8168 0 0 1 195 200 202
18.011 290.726 -94.5951 0 0 1 203 202 202
8.31462 279.85 -94.768 0 0 1 241 247 250
18.1617 286.192 -94.7346 0 0 1 227 231 232
19.6761 290.929 -94.6681 0 0 1 194 194 195
22.0243 272.882 -94.9331 0 0 1 182 179 155
15.1176 284.104 -94.8151 0 0 1 215 216 221
10.7346 291 -94.6266 0 0 1 205 203 203
17.0131 283.891 -94.7636 0 0 1 224 227 229
6.43386 288.934 -94.7204 0 0 1 204 204 206
10.9445 301.306 -94.8203 0 0 1 190 185 141
17.816 289.569 -94.5907 0 0 1 210 211 213
13.9118 284.056 -94.8009 0 0 1 218 219 223
7.44724 284.933 -94.7008 0 0 1 222 225 229
15.3504 288.359 -94.5987 0 0 1 220 222 226
5.74684 275.612 -94.7337 0 0 1 229 222 224
11.626 297.019 -94.576 0 0 1 161 158 120
12.1906 297.404 -94.7308 0 0 1 165 161 121
15.4267 302.148 -86.1732 0 0 1 118 145 76
6.73426 301.289 -94.8998 0 0 1 204 202 168
14.1262 302.286 -86.6708 0 0 1 123 156 84
11.6273 275.477 -94.8562 0 0 1 152 154 96
30.3236 274.718 -94.7359 0 0 1 218 219 220
10.74 287.444 -94.6936 0 0 1 216 218 222
12.2216 297.757 -94.6115 0 0 1 182 172 134
11.2908 284.656 -94.8268 0 0 1 216 220 226
31.2572 286.372 -94.6184 0.0681798 -0.254783 0.964592 171 163 137
6.42659 291.227 -94.6651 0 0 1 228 226 225
8.59629 283.011 -94.9033 0 0 1 216 220 226
4.49569 273.759 -94.6695 0 0 1 212 215 219
6.23788 288.793 -94.7972 0 0 1 208 208 210
16.2739 286.067 -94.7302 0 0 1 219 224 228
22.5673 292.707 -86.2977 0 0 1 125 154 87
9.81068 269.226 -94.7453 0 0 1 204 197 195
4.64463 298.862 -94.7864 0 0 1 190 186 145
18.6533 287.451 -94.6782 0 0 1 225 228 229
4.60802 270.234 -94.7949 0 0 1 205 209 213
14.973 293.633 -94.6272 0 0 1 191 190 162
7.90666 303.155 -94.6617 0 0 1 176 169 131
4.57029 287.873 -94.7327 0 0 1 209 208 209
12.6778 296.029 -94.5181 0 0 1 166 164 125
7.24607 283.295 -94.8252 0 0 1 220 224 229
26.8899 270.556 -94.7687 0.0181183 0.135352 0.990632 190 188 185
5.34951 273.483 -94.6944 0 0 1 212 216 219
7.63576 279.133 -94.8177 0 0 1 218 229 237
30.714 281.102 -94.6217 0 0 1 221 223 224
4.8292 274.269 -94.7724 0 0 1 212 215 218
8.05889 291.344 -94.5732 0 0 1 201 202 203
12.482 296.501 -94.7108 0 0 1 156 150 113
27.5379 281.215 -94.7084 0 0 1 222 226 228
29.9537 276.388 -94.8547 0 0 1 220 224 228
13.7135 299.133 -94.8042 0 0 1 185 183 140
29.7244 273.718 -94.8838 0 0 1 206 205 203
13.6053 291.806 -94.8055 0 0 1 198 197 198
16.9124 271.924 -94.8098 0 0 1 181 177 162
24.7974 282.369 -94.8769 0 0 1 225 228 231
31.5613 274.595 -94.7107 0 0 1 217 220 222
17.7111 303.228 -86.2383 0 0 1 98 138 76
6.57945 287.307 -94.8824 0 0 1 212 215 218
6.93115 279.623 -94.9227 0 0 1 217 221 225
17.4051 286.931 -94.6644 0 0 1 220 226 229
7.21625 276.71 -94.8802 0 0 1 190 183 157
18.4547 291.936 -94.6114 0 0 1 189 188 187
16.484 293.958 -94.5406 0 0 1 185 179 148
19.616 281.531 -94.8155 0 0 1 198 241 248
17.8326 301.136 -85.729 0 0 1 88 111 81
10.9661 290.296 -94.6689 0 0 1 205 205 206
19.9577 291.867 -94.5636 0 0 1 193 192 190
29.5422 303.508 -87.4441 0 0 1 106 157 88
9.33155 301.249 -94.7758 0 0 1 209 201 170
18.5392 282.127 -94.7616 0 0 1 221 236 246
12.435 298.122 -94.6535 0 0 1 196 194 154
14.487 282.696 -94.8295 0 0 1 177 192 206
26.4381 285.975 -94.6743 0 0 1 216 217 218
22.6662 285.339 -94.7181 0 0 1 218 221 223
10.3591 282.853 -94.7462 0 0 1 223 225 228
23.176 283.739 -94.8436 0 0 1 226 229 233
15.8134 292.935 -94.709 0 0 1 203 201 201
9.94581 291.812 -94.6694 0 0 1 190 189 190
17.2854 292.161 -94.5449 0 0 1 188 185 186
8.97822 285.056 -94.7197 0 0 1 223 226 230
25.1476 282.085 -94.7293 0 0 1 225 227 229
10.9987 284.352 -94.9686 0 0 1 196 202 204
26.3498 282.255 -94.5671 0 0 1 221 223 228
8.06798 279.18 -94.8815 0 0 1 183 212 226
27.2749 278.961 -94.8327 0 0 1 223 225 228
7.5052 283.864 -94.7124 0 0 1 223 225 229
7.68863 303.909 -94.7082 0 0 1 162 156 115
15.872 282.334 -94.7988 0 0 1 189 183 166
17.0431 288.877 -94.6348 0 0 1 215 216 220
29.5479 293.024 -92.3872 0 0 1 108 109 85
21.3393 280.178 -94.7724 0 0 1 208 219 220
7.96082 284.543 -94.6896 0 0 1 221 226 229
14.8364 300.006 -88.2842 0 0 1 98 121 89
22.1217 294.963 -85.112 0 0 1 106 134 80
24.0214 297.931 -85.4851 0 0 1 132 160 81
28.1713 289.365 -94.537 0 0 1 168 166 120
18.7718 287.124 -94.687 0 0 1 224 227 228
12.2978 273.58 -94.7792 0 0 1 140 143 95
19.1606 284.744 -94.9302 0 0 1 217 225 228
17.3098 287.188 -94.7109 0 0 1 220 224 228
13.4782 284.413 -94.7614 0 0 1 217 222 226
21.1003 300.762 -85.9082 0 0 1 85 106 91
20.9617 296.111 -84.8103 0 0 1 104 129 88
22.9984 285.684 -94.6421 0 0 1 219 220 222
6.20993 285.786 -94.6525 0 0 1 217 218 221
21.542 272.827 -94.9705 0 0 1 184 178 148
17.7894 289.748 -94.6204 0 0 1 207 208 210
24.8772 281.571 -94.774 0 0 1 225 227 229
16.1441 296.546 -94.7695 0 0 1 159 158 123
15.8521 283.692 -94.7926 0 0 1 225 226 229
15.4822 284.191 -94.719 0 0 1 215 218 222
23.2621 286.459 -94.6889 0 0 1 221 224 225
20.507 287.672 -94.7155 0 0 1 220 221 222
6.24271 288.807 -94.5784 0 0 1 206 207 208
5.70746 271.031 -94.7255 0 0 1 204 208 210
28.1622 280.053 -94.8665 0 0 1 222 226 230
15.4044 289.696 -94.7776 0 0 1 211 214 216
13.6688 289.194 -94.6201 0 0 1 213 214 217
18.1764 284.441 -94.7508 0 0 1 224 226 228
12.3197 286.393 -94.7317 0 0 1 224 226 230
24.0909 282.236 -94.6844 0 0 1 225 228 230
26.0197 297.459 -86.5191 0 0 1 179 173 138
6.79444 270.638 -94.7549 0 0 1 167 156 125
17.0133 289.401 -94.6991 0 0 1 209 210 213
14.5919 300.012 -89.1833 0 0 1 100 116 90
31.2901 280.132 -94.6087 0 0 1 217 220 223
27.5444 292.356 -90.9828 0 0 1 171 203 209
12.7235 300.341 -94.6425 0 0 1 182 175 130
4.48157 286.347 -94.5889 0 0 1 220 221 223
14.9423 284.554 -94.7493 0 0 1 218 222 226
22.1325 280.35 -94.9276 0 0 1 224 227 228
17.8268 300.528 -85.6357 0 0 1 99 126 81
8.46579 270.696 -94.7373 0 0 1 160 156 114
12.6686 299.412 -94.706 0 0 1 179 174 131
26.1353 280.939 -94.6848 0 0 1 224 227 231
26.7217 276.811 -94.752 0 0 1 222 222 224
5.73344 301.939 -94.68 0 0 1 193 185 152
13.5941 290.936 -94.6146 0 0 1 203 201 203
27.563 301.758 -89.6571 0 0 1 114 108 91
7.08209 302.775 -94.702 0 0 1 163 154 117
6.87896 281.843 -94.7862 0 0 1 217 221 226
21.9906 292.732 -87.3722 0 0 1 87 101 63
10.9851 298.159 -94.7283 0 0 1 189 185 144
23.353 279.943 -94.7302 0 0 1 221 223 225
5.37564 276.743 -94.7718 0 0 1 211 215 219
17.6553 293.588 -94.5677 0 0 1 200 196 170
15.2925 302.857 -85.49 0 0 1 75 105 56
20.4776 292.648 -88.5187 0 0 1 111 130 86
23.6289 296.53 -85.5611 0 0 1 115 134 84
12.3097 292.977 -94.5458 0 0 1 198 191 185
7.11278 270.824 -94.6828 0 0 1 148 144 97
16.4962 288.49 -94.6757 0 0 1 217 221 225
12.7314 270.085 -94.7788 0 0 1 200 195 190
6.20426 271.42 -94.7053 0 0 1 219 218 210
23.2822 290.468 -88.8155 0 0 1 125 152 88
27.8413 291.761 -90.3183 0 0 1 139 138 121
4.35541 283.358 -94.7425 0 0 1 224 225 228
16.6477 291.226 -94.7439 0 0 1 204 202 198
28.7238 299.373 -88.8522 0 0 1 80 109 88
30.8431 293.766 -88.2691 0 0 1 99 111 74
13.6222 293.427 -94.5465 0 0 1 215 212 207
11.4961 286.979 -94.7472 0 0 1 221 225 229
17.7387 284.458 -94.783 0 0 1 222 226 227
22.3095 296.952 -84.487 0 0 1 127 146 80
14.3715 288.733 -94.8431 0 0 1 217 220 223
19.675 295.864 -86.6267 0 0 1 101 125 68
4.84198 281.57 -94.6723 0 0 1 220 223 227
5.14071 275.474 -94.7249 0 0 1 215 219 222
14.3203 291.816 -94.7392 0 0 1 198 197 199
17.6701 285.209 -94.7152 0 0 1 223 227 229
31.3075 271.466 -94.7552 0 0 1 195 196 197
19.9957 283.177 -94.7105 0 0 1 225 227 229
28.014 298.836 -87.9945 0 0 1 111 114 94
25.5397 297.98 -86.1272 0 0 1 101 109 82
14.5152 290.205 -94.6486 0 0 1 203 204 207
20.2987 283.291 -94.8606 0 0 1 226 229 231
8.12703 281.168 -94.8732 0 0 1 222 226 229
22.0802 297.354 -84.1977 0 0 1 100 133 75
29.9137 284.414 -94.6728 0 0 1 207 206 203
7.80061 291.764 -94.6394 0 0 1 221 218 208
24.3312 275.398 -94.7782 0 0 1 172 171 118
15.4025 283.334 -94.7524 0 0 1 241 241 242
4.88498 280.784 -94.6899 0 0 1 213 219 224
6.80296 281.33 -94.7423 0 0 1 216 221 225
27.1074 302.46 -88.7469 0 0 1 122 142 98
15.4163 287.592 -94.7159 0 0 1 220 222 226
26.4259 283.274 -94.7153 0 0 1 221 225 226
4.42003 275.767 -94.7601 0 0 1 212 216 219
18.2216 289.044 -94.6411 0 0 1 210 214 216
27.6651 292.646 -90.6321 0 0 1 159 170 178
30.8085 295.237 -87.2849 0 0 1 101 119 88
12.6948 286.117 -94.8087 0 0 1 222 226 230
15.0386 299.485 -88.7554 0 0 1 100 121 90
4.76467 302.498 -94.7855 0 0 1 193 189 154
9.81424 302.051 -94.6712 0 0 1 189 182 142
26.8881 280.693 -94.8702 0 0 1 192 202 204
26.0728 281.778 -94.6696 0 0 1 223 226 230
6.13199 280.699 -94.6956 0 0 1 216 219 224
14.0443 294.061 -94.5655 0 0 1 195 192 154
25.6786 278.275 -94.8615 0 0 1 218 221 223
5.83363 284.767 -94.7059 0 0 1 223 227 229
17.1424 289.082 -94.6686 0 0 1 211 213 217
6.02641 302.856 -94.7076 0 0 1 178 168 138
11.6051 288.397 -94.6413 0 0 1 216 218 220
15.0052 284.128 -94.7357 0 0 1 214 219 223
5.57327 290.448 -94.6527 0 0 1 206 204 201
29.2526 279.464 -94.7579 0 0 1 221 225 229
13.3645 301.214 -94.7439 0 0 1 182 166 135
17.6099 289.031 -94.6874 0 0 1 212 214 217
23.2982 281.956 -94.6677 0 0 1 225 228 230
12.4473 270.313 -94.8549 0 0 1 196 193 179
23.0334 269.575 -94.858 0 0 1 210 209 207
11.714 295.943 -94.567 0 0 1 183 180 143
19.3826 286.942 -94.7838 0 0 1 224 227 229
5.81531 286.271 -94.665 0 0 1 215 215 219
13.8245 286.967 -94.8852 0 0 1 225 229 234
11.9949 295.888 -94.6163 0 0 1 185 179 144
16.8283 293.048 -94.5601 0 0 1 214 212 208
16.9271 299.1 -86.6074 0 0 1 127 153 95
27.7483 279.073 -94.9042 0 0 1 222 225 229
25.7994 284.842 -94.7507 0 0 1 224 228 231
16.9939 300.703 -86.3838 0 0 1 95 116 82
25.1079 283.453 -94.7382 0 0 1 223 226 227
8.82675 274.898 -94.7338 0 0 1 160 158 109
27.4937 278.938 -94.8664 0 0 1 223 226 231
4.88566 276.577 -94.6725 0 0 1 213 216 220
28.1742 278.358 -94.793 0 0 1 221 225 228
15.2007 291.759 -94.5944 0 0 1 199 198 199
4.36157 280.509 -94.7804 0 0 1 216 221 226
5.06579 275.692 -94.6883 0 0 1 214 218 221
27.0536 278.919 -94.898 0 0 1 228 231 236
14.9179 288.683 -94.6776 0 0 1 218 221 224
7.39129 272.866 -94.7493 0 0 1 140 143 90
19.8863 286.655 -94.66 0 0 1 222 225 226
17.993 290.628 -94.7873 0 0 1 177 175 176
4.90818 277.074 -94.7215 0 0 1 213 216 221
6.81666 302.667 -94.7152 0 0 1 193 184 152
25.8296 276.437 -94.7533 0 0 1 221 224 225
25.786 282.873 -94.7215 0 0 1 221 224 228
29.9425 275.927 -94.6544 0 0 1 216 219 221
10.4407 283.835 -94.7811 0 0 1 216 220 225
27.2672 281.595 -94.6997 0 0 1 222 224 227
30.9928 273.925 -94.7226 0 0 1 218 219 220
7.43762 288.837 -94.7594 0 0 1 213 214 216
31.2385 297.975 -86.2805 0 0 1 118 116 92
22.681 291.389 -87.9603 0 0 1 97 125 66
18.1832 296.322 -94.678 0 0 1 167 161 128
28.9506 281.789 -94.7466 0 0 1 220 219 225
13.7737 299.819 -94.7379 0 0 1 178 168 136
21.2813 279.203 -94.7848 0 0 1 211 205 170
14.2056 291.287 -94.7453 0 0 1 211 209 211
15.3172 288.046 -94.7402 0 0 1 221 222 226
11.7583 297.114 -94.6318 0 0 1 147 143 103
25.7588 279.361 -94.7728 0 0 1 222 225 229
19.5322 290.003 -94.6248 0 0 1 206 205 207
24.6797 285.296 -94.7252 0 0 1 225 227 228
15.8596 287.985 -94.6363 0 0 1 218 222 226
11.9765 290.629 -94.7368 0 0 1 202 202 203
8.74062 291.596 -94.6895 0 0 1 207 205 206
10.546 281.678 -95.0072 0 0 1 107 145 175
9.33031 284.291 -94.815 0 0 1 219 223 227
8.17986 285.258 -94.7812 0 0 1 228 231 232
19.0662 285.455 -94.7138 0 0 1 226 229 231
28.0493 279.641 -94.6966 0 0 1 222 226 230
25.5422 283.95 -94.701 0 0 1 218 222 223
27.5371 294.699 -92.203 0 0 1 116 112 102
28.8769 269.072 -94.8335 0 0 1 223 221 220
13.2871 288.987 -94.596 0 0 1 213 214 217
23.8647 296.068 -86.1774 0 0 1 105 122 80
27.7652 276.477 -94.742 0 0 1 223 224 226
17.0336 282.677 -94.8837 0 0 1 246 247 248
7.38986 282.962 -94.7704 0 0 1 219 224 228
15.6496 288.863 -94.6695 0 0 1 217 219 220
9.82013 269.042 -94.7989 0 0 1 192 186 183
10.1752 292.434 -94.6741 0 0 1 197 191 192
29.1389 281.886 -94.7279 0 0 1 216 218 219
27.147 288.945 -94.6557 0 0 1 185 181 161
26.8871 285.253 -94.743 0 0 1 223 225 227
19.6203 284.586 -94.7373 0 0 1 223 228 229
11.4168 289.022 -94.6426 0 0 1 209 210 213
17.6276 303.08 -86.2246 0 0 1 93 124 69
30.9514 274.627 -94.7278 0 0 1 218 220 223
14.7771 287.258 -94.7506 0 0 1 224 227 231
4.80042 304.34 -94.6229 0 0 1 189 178 148
22.4664 284.871 -94.6756 0 0 1 224 227 228
4.88635 280.781 -94.8251 0 0 1 213 219 224
28.6279 279.043 -94.7279 0 0 1 223 227 230
12.7952 297.251 -94.6178 0 0 1 172 164 128
24.8148 296.784 -86.314 0 0 1 101 105 78
9.95412 285.779 -94.7164 0 0 1 222 225 230
7.73044 269.107 -94.7053 0 0 1 200 194 174
23.346 296.746 -85.5777 0 0 1 128 150 86
26.2515 281.532 -94.7114 0 0 1 224 226 230
22.7228 297.378 -85.2317 0 0 1 141 166 95
15.4676 289.184 -94.6804 0 0 1 214 216 218
29.2884 279.568 -94.6896 0 0 1 221 225 229
6.58289 304.489 -94.7836 0 0 1 170 154 124
7.4799 277.562 -94.7586 0 0 1 197 193 175
4.34426 271.753 -94.7043 0 0 1 209 212 216
11.6462 299.283 -94.6327 0 0 1 186 182 141
11.9078 273.906 -94.8036 0 0 1 150 153 99
30.5467 278.352 -94.7595 0 0 1 220 224 228
7.83183 281.593 -94.8075 0 0 1 220 225 228
4.71709 287.652 -94.5849 0 0 1 207 207 208
27.0146 292.52 -93.9748 0 0 1 159 157 151
28.5803 279.404 -94.8884 0 0 1 166 170 171
28.4394 274.092 -94.8001 0 0 1 213 212 211
7.23106 284.704 -94.6767 0 0 1 223 226 231
17.048 285.919 -94.7419 0 0 1 227 230 232
6.57389 277.171 -94.8695 0 0 1 228 234 238
23.8484 296.756 -86.0204 0 0 1 87 112 65
8.30048 286.09 -94.6217 0 0 1 218 222 226
11.6104 301.06 -94.6623 0 0 1 177 169 125
17.2368 292.966 -94.573 0 0 1 213 208 206
30.0412 285.185 -94.7574 0 0 1 230 229 222
11.7874 295.688 -94.6039 0 0 1 194 190 155
30.728 280.531 -94.8983 0 0 1 214 214 215
11.0418 287.806 -94.6588 0 0 1 215 218 221
31.305 275.227 -94.7555 0 0 1 218 221 223
17.2008 290.249 -94.6844 0 0 1 204 202 204
13.7771 291.803 -94.6889 0 0 1 197 195 196
31.528 301.184 -87.3733 0 0 1 62 101 71
11.3937 285.672 -94.7095 0 0 1 220 225 229
6.1545 278.133 -94.8825 0 0 1 214 218 222
5.59993 302.407 -94.6897 0 0 1 212 206 175
16.4179 300.178 -86.593 0 0 1 93 114 77
9.46575 286.714 -94.6058 0 0 1 220 224 227
10.9745 286.523 -94.6843 0 0 1 221 224 228
23.3185 282.316 -94.7761 0 0 1 224 227 230
22.116 282.591 -94.682 0 0 1 225 229 230
15.3227 302.057 -86.0358 0 0 1 134 153 88
21.8906 294.406 -85.2437 0 0 1 109 130 83
8.43811 286.161 -94.6593 0 0 1 217 222 225
30.0326 280.376 -94.6856 0 0 1 220 222 223
29.781 291.685 -89.5257 0 0 1 109 108 98
26.5015 282.216 -94.7769 0 0 1 222 225 230
13.95 298.691 -94.6489 0 0 1 181 178 136
6.00227 304.119 -89.194 0 0 1 118 145 97
9.27335 281.698 -94.9529 0 0 1 232 235 237
27.1573 299.149 -90.049 0 0 1 94 92 78
28.5114 297.797 -90.62 0 0 1 130 124 109
8.72983 301.551 -94.7475 0 0 1 206 202 168
28.4429 298.441 -88.6482 0 0 1 105 104 82
22.7075 277.754 -94.8008 0 0 1 208 206 166
4.3933 284.498 -94.6156 0 0 1 221 223 226
29.6538 274.559 -94.6839 0 0 1 204 202 203
18.4288 300.734 -86.4128 0 0 1 98 124 78
24.9824 301.796 -87.7645 0 0 1 74 100 73
17.1869 288.945 -94.6635 0 0 1 211 213 217
22.0125 279.478 -94.7813 0 0 1 202 195 164
21.4591 279.544 -94.7888 0 0 1 210 202 171
17.9952 301.733 -86.3794 0 0 1 78 101 83
25.3028 274.429 -94.8708 0 0 1 182 176 157
26.414 277.612 -94.7774 0 0 1 220 222 225
15.0535 286.207 -94.7142 0 0 1 221 224 228
9.71217 290.391 -94.601 0 0 1 203 202 205
5.20777 280.077 -94.8916 0 0 1 218 226 230
22.7168 298.598 -85.2625 0 0 1 98 117 76
25.5148 276.703 -94.8751 0 0 1 222 223 224
11.3895 302.062 -94.673 0 0 1 192 177 145
8.42718 283.313 -94.7613 0 0 1 216 222 226
5.87266 275.9 -94.8411 0 0 1 232 233 234
13.6996 303.039 -87.1852 0 0 1 105 132 86
22.562 303.116 -88.1303 0 0 1 109 138 76
23.6641 284.008 -94.812 0 0 1 224 227 228
14.9054 271.801 -94.8183 0 0 1 185 183 139
12.3104 299.824 -94.6244 0 0 1 193 186 149
28.6576 300.83 -89.1323 0 0 1 120 119 98
15.9074 302.145 -85.7297 0 0 1 131 161 98
11.6753 290.397 -94.7616 0 0 1 209 207 207
12.0584 292.599 -94.689 0 0 1 193 190 189
7.09395 285.24 -94.6716 0 0 1 221 225 229
22.3467 282.106 -94.7746 0 0 1 226 227 229
10.284 293.088 -94.5291 0 0 1 200 198 166
4.28786 281.621 -94.6581 0 0 1 219 223 227
4.5028 280.058 -94.8823 0 0 1 171 177 181
14.9924 302.034 -86.0393 0 0 1 142 170 99
15.9331 302.429 -85.3276 0 0 1 127 154 88
23.4659 291.394 -87.8666 0 0 1 106 129 72
26.3641 279.289 -94.7678 0 0 1 220 224 227
31.2113 303.788 -88.6253 0 0 1 96 131 78
13.4367 296.877 -94.6914 0 0 1 183 181 140
27.4425 279.236 -94.8012 0 0 1 221 224 227
29.966 275.893 -94.8231 0 0 1 216 219 221
5.1384 280.154 -94.8103 0 0 1 214 219 225
27.6452 294.841 -92.2605 0 0 1 84 79 72
29.2235 280.887 -94.7047 0 0 1 218 222 223
23.6812 291.63 -87.7563 0 0 1 126 154 87
10.6363 301.199 -94.637 0 0 1 212 209 170
15.341 291.056 -94.7058 0 0 1 203 202 204
15.1367 284.669 -94.8786 0 0 1 218 222 225
27.8728 292.744 -91.7309 0 0 1 139 137 133
7.07076 287.562 -94.6756 0 0 1 212 212 215
11.2862 286.711 -94.8535 0 0 1 202 206 207
30.0712 277.819 -94.6534 0 0 1 220 224 225
18.9471 296.903 -86.2648 0 0 1 96 120 73
4.57576 304.613 -94.7684 0 0 1 188 176 150
25.7666 282.132 -94.8339 0 0 1 221 225 228
23.4136 297.023 -85.4495 0 0 1 136 161 86
26.8404 302.16 -89.1615 0 0 1 95 113 77
19.9747 291.707 -94.5757 0 0 1 193 192 190
30.0441 278.978 -94.8919 0 0 1 201 208 211
7.84677 289.211 -94.6948 0 0 1 211 210 210
20.7803 293.18 -87.7712 0 0 1 97 123 78
29.857 278.782 -94.7394 0 0 1 219 223 227
9.47407 301.485 -94.6604 0 0 1 209 204 170
8.36319 283.508 -94.8756 0 0 1 217 223 227
17.2573 287.281 -94.7098 0 0 1 219 224 227
29.783 284.123 -94.706 0 0 1 209 208 210
6.26402 272.794 -94.763 0 0 1 190 184 149
18.1245 293.261 -94.5745 0 0 1 215 213 199
12.9236 291.006 -94.5901 0 0 1 202 201 203
13.9675 302.841 -87.2691 0 0 1 114 132 93
5.65121 278.822 -94.8379 0 0 1 212 216 221
8.23707 269.656 -94.7128 0 0 1 164 153 119
6.02325 303.41 -94.8343 0 0 1 189 180 149
7.55796 270.176 -94.6891 0 0 1 168 161 122
6.27183 287.512 -94.6074 0 0 1 212 212 215
15.1423 289.251 -94.6751 0 0 1 214 216 219
20.4949 283.207 -94.7151 0 0 1 225 228 230
31.0186 279.07 -94.8041 0 0 1 221 224 228
10.1359 283.591 -94.9094 0 0 1 189 197 201
7.23407 290.532 -94.6757 0 0 1 203 203 204
19.2859 269.279 -94.8405 0 0 1 182 187 188
11.0165 294.479 -94.5498 0 0 1 170 168 119
12.2344 282.502 -94.8134 0 0 1 221 232 239
17.857 300.87 -85.4575 0 0 1 102 123 84
15.3553 300.923 -87.2653 0 0 1 93 118 81
13.319 282.326 -94.8613 0 0 1 195 194 182
6.3101 277.043 -94.851 0 0 1 235 235 237
10.468 288.283 -94.7007 0 0 1 211 212 215
31.349 271.648 -94.7756 0 0 1 192 194 196
6.71387 303.946 -90.8493 0 0 1 172 191 203
10.985 289.82 -94.8146 0 0 1 214 213 212
19.6159 294.286 -87.9616 0 0 1 101 121 78
12.0461 271.232 -94.7217 0 0 1 167 165 123
17.2908 284.693 -94.7907 0 0 1 223 227 229
31.5569 283.769 -94.6428 0 0 1 194 193 172
21.7027 283.933 -94.749 0 0 1 225 228 229
23.8766 293.066 -87.0584 0 0 1 95 113 81
13.7915 302.011 -87.7125 0 0 1 97 115 87
7.86292 269.281 -94.7445 0 0 1 177 165 148
26.7015 282.734 -94.683 0 0 1 220 225 226
11.0524 302.13 -94.6414 0 0 1 172 161 122
21.2512 288.285 -94.7602 0 0 1 209 213 216
17.1789 297.505 -94.6968 0 0 1 163 155 127
27.9261 285.582 -94.5748 0 0 1 208 208 209
16.0613 298.125 -94.7439 0 0 1 198 188 159
15.3189 289.178 -94.7638 0 0 1 214 217 220
11.4643 293.382 -94.5547 0 0 1 196 194 156
8.71711 273.974 -94.7243 0 0 1 130 134 84
23.5804 284.093 -94.7706 0 0 1 224 227 229
20.644 285.402 -94.6792 0 0 1 226 229 231
8.86505 280 -94.7016 0 0 1 227 218 217
16.2536 290.873 -94.6087 0 0 1 204 202 205
22.2124 297.592 -84.0448 0 0 1 111 142 78
4.42422 282.337 -94.7629 0 0 1 220 224 227
23.4572 279.97 -94.7442 0 0 1 221 223 225
23.1757 283.573 -94.777 0 0 1 226 228 230
10.2522 301.425 -94.665 0 0 1 195 191 146
30.5065 279.675 -94.6912 0 0 1 222 225 229
9.15918 284.309 -94.838 0 0 1 220 224 228
28.9258 295.782 -91.565 0 0 1 104 106 99
16.1675 292.229 -94.562 0 0 1 195 193 194
31.3827 293.478 -94.3278 0 0 1 88 87 70
25.8714 298.228 -87.6449 0 0 1 88 101 85
27.0585 281.714 -94.7199 0 0 1 222 224 227
28.9792 281.211 -94.7028 0 0 1 220 223 225
19.9783 295.982 -85.9214 0 0 1 98 123 80
13.3775 290.067 -94.7261 0 0 1 208 207 208
9.74978 282.51 -94.8391 0 0 1 218 223 227
16.0464 286.797 -94.8255 0 0 1 222 226 229
20.6012 281.032 -94.8074 0 0 1 241 240 242
22.0912 284.832 -94.6932 0 0 1 225 228 230
13.0199 301.056 -94.7203 0 0 1 179 167 126
14.33 291.767 -94.704 0 0 1 200 198 200
28.2118 281.609 -94.7136 0 0 1 220 222 226
15.099 299.046 -88.8072 0 0 1 116 141 97
19.4887 282.111 -94.7881 0 0 1 236 236 238
4.99225 281.739 -94.6565 0 0 1 219 224 228
11.062 285.268 -94.8558 0 0 1 220 224 228
12.0436 289.129 -94.6207 0 0 1 210 210 212
5.80612 285.649 -94.8528 0 0 1 215 218 221
19.1276 295.332 -87.6764 0 0 1 103 133 78
26.1013 302.576 -89.0011 0 0 1 102 133 94
27.1603 296.367 -86.5337 0 0 1 97 104 89
7.98309 287.79 -94.6293 0 0 1 214 215 217
24.9448 280.151 -94.8235 0 0 1 224 227 232
17.1413 284.695 -94.7843 0 0 1 223 228 229
20.6029 292.649 -88.498 0 0 1 111 130 86
6.75703 281.39 -94.8631 0 0 1 216 220 225
18.4461 299.418 -85.4736 0 0 1 89 110 92
17.2901 298.576 -86.7376 0 0 1 96 117 91
16.1178 287.611 -94.6832 0 0 1 217 220 224
20.2094 297.852 -85.5147 0 0 1 112 130 85
15.5652 300.047 -87.2916 0 0 1 97 120 87
7.79736 270.561 -94.6924 0 0 1 153 148 104
24.1766 285.082 -94.599 0 0 1 217 219 223
20.2438 290.766 -94.5945 0 0 1 184 181 176
19.4102 295.444 -87.6072 0 0 1 86 108 61
18.6144 287.222 -94.7157 0 0 1 224 227 228
27.8759 279.154 -94.555 0 0 1 222 225 229
17.1867 302.544 -85.5431 0 0 1 100 128 70
23.3021 293.252 -86.1364 0 0 1 76 105 65
8.89041 289.541 -94.6061 0 0 1 206 205 208
26.0649 301.168 -88.4575 0 0 1 114 112 78
20.4653 283.392 -94.8144 0 0 1 226 228 230
9.29213 301.885 -94.7662 0 0 1 198 194 154
21.9673 291.64 -87.9484 0 0 1 131 155 86
17.3809 282.76 -94.7633 0 0 1 244 244 245
19.2498 297.715 -85.9696 0 0 1 116 131 96
7.26819 283.463 -94.6755 0 0 1 220 224 229
5.24394 286.611 -94.6552 0 0 1 214 215 216
15.1967 291.205 -94.7222 0 0 1 205 203 205
28.4593 282.217 -94.6502 0 0 1 213 215 217
10.6944 286.975 -94.8382 0 0 1 220 224 227
8.81917 286.817 -94.5566 0 0 1 220 221 225
19.4284 293.664 -94.5797 0 0 1 174 159 128
28.5181 276.946 -94.7836 0 0 1 217 219 223
9.03366 285.143 -94.7151 0 0 1 223 226 230
20.1688 292.885 -88.4896 0 0 1 91 113 69
21.2247 284.2 -94.7242 0 0 1 225 229 231
6.00234 303.477 -94.6948 0 0 1 182 173 141
28.1351 281.378 -94.8655 0 0 1 219 220 224
