ply
format ascii 1.0
comment Created by Open3D
element vertex 945
property double x
property double y
property double z
property double nx
property double ny
property double nz
property uchar red
property uchar green
property uchar blue
end_header
30.0782 270.069 -94.7538 0.865132 -0.263322 -0.426858 188 191 189
24.2101 275.355 -94.7734 -0.292648 -0.00807167 -0.956186 172 171 116
6.23827 271.334 -94.7533 0 0 1 219 218 210
19.1508 297.965 -85.7766 0 0 1 130 143 115
31.2789 275.342 -94.7599 0 0 1 218 221 223
30.6644 285.834 -94.6391 0.318962 0.222111 -0.921374 202 198 168
6.21172 293.194 -94.5301 0 0 1 151 168 106
24.1797 303.232 -87.9131 0 0 1 79 97 59
31.4812 301.923 -88.1448 -0.488949 0.580113 -0.651458 29 47 33
21.9372 289.087 -94.6556 -0.0517618 0.269999 -0.961468 192 192 188
29.7866 277.343 -94.7146 0.118597 0.580387 0.805658 223 226 229
6.16383 281.519 -94.6543 0 0 1 216 221 225
4.58179 300.497 -94.6901 0 0 1 188 181 144
31.123 279.143 -94.7036 0.93335 -0.00113134 -0.358966 221 224 227
6.20782 289.924 -94.5591 0 0 1 209 209 209
4.47474 291.807 -94.6102 0 0 1 149 165 99
31.1029 303.263 -89.6083 0 0 1 24 39 29
16.382 272.778 -94.8865 0 0 1 165 164 118
22.5021 294.836 -85.4066 -0.139797 0.0760026 0.987259 135 157 100
28.918 275.198 -94.8164 0.145366 0.396818 -0.906314 218 219 220
5.31661 288.684 -94.5991 0.321309 -0.0068752 -0.94695 208 207 208
26.0144 293.791 -91.4507 0 0 1 133 125 97
7.65592 290.682 -94.7046 0 0 1 202 203 203
9.10087 292.79 -94.6429 0.246895 -0.947667 0.202412 189 193 153
10.9157 269.721 -94.8017 0 0 1 210 209 198
16.1739 268.84 -94.7281 0 0 1 181 188 189
10.3796 273.548 -94.76 0 0 1 161 157 108
7.10204 272.091 -94.6684 0 0 1 147 148 100
31.0017 281.209 -94.609 0 0 1 220 223 224
9.78138 281.382 -94.8935 0.684449 -0.177321 0.707169 247 249 250
5.55198 288.898 -94.6152 0.645262 0.498672 -0.57876 207 205 206
10.7035 288.311 -94.7405 0.0356011 0.256079 -0.966 211 212 216
7.13199 292.331 -94.55 0.574109 -0.807967 -0.132619 181 184 137
15.1553 290.084 -94.7678 0.431674 0.154836 -0.888641 206 207 211
29.8949 288.945 -88.5839 0 0 1 128 145 126
25.6705 272.092 -94.8586 0 0 1 199 204 202
27.2745 268.992 -94.8095 -0.358519 -0.812419 -0.459825 207 211 210
24.5149 271.726 -94.7483 0 0 1 199 202 199
9.82709 281.145 -94.8528 0.0917826 0.840246 -0.534381 245 245 249
25.7042 272.602 -94.7893 0 0 1 196 199 197
12.7821 289.111 -94.6601 0.852818 -0.492451 0.173764 212 214 216
14.1789 290.649 -94.7571 0 0 1 201 202 203
16.6122 298.937 -87.0229 0 0 1 83 102 69
17.1325 287.793 -94.7485 0 0 1 217 220 224
25.4676 297.609 -88.5963 0 0 1 57 65 51
18.5994 298.051 -86.1016 0 0 1 134 149 111
31.3691 279.453 -94.6283 0 0 1 216 219 223
16.5388 274.404 -94.8469 0 0 1 154 174 107
22.9165 287.055 -94.7551 0 0 1 221 222 223
10.7266 299.522 -94.6282 0 0 1 182 181 130
27.2291 270.062 -94.8468 0.234948 0.879995 0.412806 168 168 166
15.8372 270.013 -94.8089 0 0 1 175 180 179
22.099 280.854 -94.8305 0 0 1 222 224 224
4.99025 296.674 -94.6176 -0.389954 0.350314 -0.851596 179 182 138
30.4963 284.721 -94.5999 -0.334124 -0.296212 -0.894773 219 218 209
15.5954 297.136 -94.732 0 0 1 189 190 150
16.7038 295.892 -94.5744 0 0 1 182 189 144
22.635 297.784 -85.3269 0 0 1 66 85 49
15.4075 292.616 -94.6975 0 0 1 197 195 194
30.5777 294.382 -91.8516 0 0 1 69 71 65
25.6191 277.87 -94.8097 0.645576 0.756729 0.102916 218 220 223
28.4249 282.673 -94.7382 0 0 1 224 223 228
30.3559 274.684 -94.7232 0 0 1 218 219 220
22.3792 294.165 -85.9732 0 0 1 112 136 89
17.4404 281.729 -94.8448 0 0 1 184 182 142
23.2143 299.653 -87.1728 0 0 1 31 47 39
14.099 269.303 -94.6849 0 0 1 177 182 182
27.5794 271.489 -94.8542 0.927837 0.254636 -0.272541 234 234 235
27.5454 299.762 -88.23 -0.537498 0.482816 -0.691364 97 95 71
22.1953 291.823 -87.7123 0 0 1 97 124 69
29.15 302.311 -89.5216 0.950664 -0.308163 0.0356746 79 99 70
27.5841 281.495 -94.7876 0 0 1 221 224 226
7.22635 281.583 -94.8362 0 0 1 216 222 226
7.30665 295.859 -94.5863 0 0 1 179 188 140
7.91368 289.186 -94.6295 0.317303 -0.685034 -0.65578 211 210 212
29.9581 268.894 -94.8257 0 0 1 198 201 199
11.1579 273.006 -94.8324 -0.320687 -0.53401 0.7823 160 166 116
23.7588 268.954 -94.8566 -0.323107 0.452125 -0.831376 213 215 214
12.9302 285.078 -94.8119 -0.384593 -0.830986 0.401934 218 221 226
31.5455 301.679 -87.8984 0 0 1 36 56 41
17.5339 292.06 -94.6546 0.320182 0.932713 -0.16592 183 183 184
21.2044 301.808 -87.0879 0 0 1 26 36 28
9.72666 284.774 -94.7347 0.769315 -0.283832 0.572358 219 224 228
15.3206 296.532 -94.5709 0.192923 -0.0809465 -0.977869 177 184 132
5.09487 274.685 -94.8752 0 0 1 197 203 203
4.91229 271.041 -94.6715 0.79877 -0.51976 0.303012 204 209 211
22.1312 287.777 -94.6594 0 0 1 219 220 220
10.2667 302.762 -94.7721 0 0 1 171 170 134
7.91724 271.997 -94.6728 0 0 1 143 146 89
9.027 279.603 -94.8531 0.548437 -0.023339 0.835866 180 170 151
8.15175 300.234 -94.6817 0.419384 0.894214 0.156517 179 187 134
25.1249 285.242 -94.6876 0 0 1 225 227 228
30.3707 294.011 -92.2036 0 0 1 55 54 47
7.49912 296.464 -94.6441 -0.589757 0.803628 0.0798053 175 182 130
19.1041 295.716 -85.9695 0 0 1 135 162 91
27.9968 286.324 -94.6657 0 0 1 191 191 188
12.6463 275.251 -94.7829 0 0 1 177 183 127
26.2012 279.224 -94.9005 -0.399341 0.435752 -0.806627 221 223 225
23.7954 279.169 -94.8877 0 0 1 219 220 222
23.5876 282.84 -94.7873 0 0 1 225 228 229
25.5888 296.997 -86.0867 0.197877 -0.610138 -0.767187 131 128 106
6.99228 294.865 -94.5453 0 0 1 159 173 125
4.89332 293.738 -94.6253 0.719146 -0.0175848 0.694637 177 188 142
5.48583 297.059 -94.6942 -0.323793 -0.158123 -0.932821 169 173 127
7.7585 280.637 -94.8615 0.251012 0.951821 0.176154 225 228 231
24.5374 303.121 -87.3471 0 0 1 181 198 143
11.2821 297.643 -94.632 0.829292 0.460143 0.317087 185 182 135
6.3062 285.421 -94.7105 0 0 1 216 219 222
31.1002 286.728 -94.6702 0.0797823 -0.222343 -0.971699 163 172 124
11.7073 291.453 -94.7056 0 0 1 201 198 198
13.8015 288.057 -94.6759 0 0 1 218 222 225
5.24862 297.808 -94.6427 -0.358223 -0.643882 -0.676086 190 190 147
11.1358 295.004 -94.5334 0 0 1 170 169 122
22.5859 269.501 -94.8087 0.952946 -0.299233 0.0485217 192 196 195
23.3379 280.463 -94.9782 0 0 1 188 194 194
14.8766 284.635 -94.7914 0 0 1 218 222 226
27.701 270.401 -94.8417 0 0 1 202 206 203
15.222 291.223 -94.5969 0 0 1 206 203 205
7.7183 283.894 -94.725 -0.575085 0.808295 0.12624 222 224 228
28.3391 291.578 -90.2695 0.697243 0.234582 -0.677365 161 168 158
6.57979 274.9 -94.7575 -0.123219 -0.972125 0.199475 196 193 160
6.10584 275.735 -94.6136 0 0 1 163 156 154
19.8794 276.068 -94.7763 0 0 1 182 195 126
27.2521 282.313 -94.6696 0.134816 -0.775497 -0.61679 220 224 226
28.5906 284.475 -94.6754 -0.258312 -0.0822608 -0.962553 217 219 220
29.3742 286.179 -94.7805 0 0 1 202 200 189
16.8393 287.565 -94.7329 0.010809 0.830776 -0.556502 220 223 227
27.1865 280.265 -94.7525 0.0584037 0.995736 -0.0714101 223 227 230
9.40813 292.678 -94.5535 0.97359 0.201621 -0.107107 216 214 195
9.82366 275.462 -94.7902 0 0 1 170 171 118
14.9887 295.022 -94.5651 0.179993 0.565119 0.805136 180 190 138
31.2663 301.014 -87.3424 0 0 1 69 105 73
13.8778 292.92 -94.6276 0.401191 -0.673329 -0.621027 203 201 199
5.2215 290.318 -94.6711 -0.0408478 0.88721 0.459554 207 205 206
17.3479 294.392 -94.6227 0.631427 -0.634007 0.44647 178 187 137
24.2964 302.567 -89.2347 0.814573 -0.176773 -0.552469 33 41 29
11.1348 295.827 -94.5262 0 0 1 185 183 143
24.6417 299.64 -87.3865 0 0 1 41 55 44
30.0378 301.894 -90.3803 0 0 1 52 78 45
6.76077 282.394 -94.9016 0.649267 -0.424955 0.630766 192 197 202
7.49636 278.066 -94.8436 0.326486 -0.618515 -0.714736 239 241 241
18.9601 301.228 -86.7559 0.109019 -0.898292 -0.42566 41 51 46
29.9284 285.093 -94.6783 0 0 1 215 214 209
16.0999 284.059 -94.7227 -0.623948 -0.18221 -0.759926 225 225 228
5.97002 302.519 -94.7678 0.979346 -0.200421 -0.0267107 204 203 169
8.36893 273.467 -94.7342 0 0 1 141 146 94
11.8172 270.64 -94.775 0.546202 0.116584 -0.829501 170 167 141
30.3983 284.743 -94.6569 -0.676132 0.673201 -0.29941 215 214 201
27.6576 273.674 -94.744 0.0801691 -0.179447 -0.980496 198 202 200
23.8044 279.757 -94.7108 0 0 1 221 223 225
17.2175 291.851 -94.7104 0 0 1 191 189 190
29.2818 283.318 -94.7393 0 0 1 225 226 226
22.0544 278.428 -94.7724 0 0 1 203 201 160
18.3218 281.918 -94.7937 0.536427 0.374177 -0.756464 206 230 234
15.9553 279.624 -94.8084 0 0 1 188 197 127
31.341 298.042 -93.6708 0 0 1 52 59 46
16.1569 274.13 -94.8484 0 0 1 171 187 131
15.1208 293.338 -94.6442 -0.135433 0.988024 0.0739362 218 214 213
9.07694 289.048 -94.7738 0 0 1 209 208 210
28.0689 280.089 -94.9662 0 0 1 155 162 164
9.21592 277.016 -94.7204 0 0 1 176 186 121
6.4148 288.741 -94.5556 0 0 1 208 207 209
6.39901 302.263 -94.8296 0 0 1 202 198 164
13.3604 269.463 -94.7174 0 0 1 169 173 174
23.3404 278.079 -94.7972 0 0 1 221 217 206
18.8613 285.7 -94.7452 0 0 1 227 230 231
24.3521 287.286 -94.6952 -0.73667 -0.263754 -0.622697 220 221 220
13.1735 273.166 -94.8384 0 0 1 185 189 143
16.9598 297.543 -94.706 0 0 1 171 162 133
14.5645 295.722 -94.5765 0 0 1 180 191 136
31.107 281.216 -94.6624 -0.0576885 0.67481 -0.735734 220 223 223
9.05982 296.485 -94.5664 0 0 1 179 192 146
18.6986 273.321 -94.869 0 0 1 176 175 122
4.48609 275.078 -94.893 0 0 1 195 199 202
12.6519 297.315 -94.7083 0 0 1 174 165 128
13.4312 277.869 -94.8322 0.619397 0.278056 0.734188 196 204 146
8.60372 280.491 -94.7777 0 0 1 244 245 245
5.01389 285.288 -94.7346 0.258592 0.66697 -0.698771 220 221 223
6.84015 272.83 -94.7167 0 0 1 173 172 113
6.15597 289.204 -94.6685 0 0 1 208 206 207
11.2499 297.686 -94.7111 0.806589 0.569197 0.159465 189 190 142
12.24 283.498 -94.8303 0 0 1 224 225 229
18.3193 277.776 -94.7565 0 0 1 192 204 143
8.28615 278.6 -94.8471 -0.307693 -0.113635 -0.944676 186 178 153
8.06439 279.781 -94.8867 0.355881 -0.396982 -0.846023 230 229 240
9.48349 284.95 -94.7884 0 0 1 221 225 229
14.4673 290.305 -94.6915 0 0 1 203 202 205
30.471 302.979 -89.2722 -0.0152204 0.998246 -0.0572132 27 41 25
8.82386 284.123 -94.8627 0 0 1 224 228 232
10.0713 275.538 -94.7623 0 0 1 168 168 113
22.7696 300.518 -87.3987 0 0 1 25 38 37
9.03353 284.447 -94.8807 0 0 1 201 208 211
15.7972 293.554 -94.5302 0 0 1 196 192 171
17.8939 302.436 -86.3226 0 0 1 76 96 58
10.2784 293.466 -94.5402 0 0 1 184 193 139
28.9724 302.248 -91.7017 0 0 1 0 0 0
27.1588 280.814 -94.7307 -0.0115217 0.049161 -0.998724 223 226 230
31.458 281.562 -94.6425 0.09357 0.990505 -0.10072 222 224 222
22.2903 274.317 -94.7991 0.68855 0.287544 0.665745 161 167 103
7.96353 273.52 -94.6767 0 0 1 139 148 95
26.1967 282.975 -94.7347 -0.413334 0.899125 -0.14398 222 226 229
7.66172 302.825 -94.7146 -0.428 -0.54008 -0.724658 169 170 136
17.131 283.948 -94.7318 0.00483626 0.999941 -0.0097285 224 227 229
8.2366 288.008 -94.7146 -0.777768 0.557545 -0.290208 212 213 215
25.3677 282.256 -94.712 0.695011 0.111149 -0.710356 223 226 228
26.4997 288.705 -94.6298 -0.553363 -0.174301 -0.814499 169 170 163
30.4571 282.998 -94.7068 -0.360564 -0.436514 -0.824287 220 221 219
23.3965 279.612 -94.8334 0 0 1 220 222 223
25.635 295.568 -86.1783 0 0 1 143 154 116
29.3398 286.518 -94.5943 0.551182 -0.290418 -0.782212 199 197 177
16.6038 288.959 -94.7345 0 0 1 211 214 217
11.0051 282.461 -94.9133 -0.298288 -0.500052 -0.813002 238 238 241
20.3838 271.127 -94.8185 0 0 1 201 207 209
30.3186 294.889 -93.1721 0.132327 0.980414 0.14587 69 74 69
16.5991 298.074 -88.298 0 0 1 114 135 99
13.6969 282.273 -94.7812 0 0 1 154 151 125
13.3966 301.046 -89.0778 0 0 1 110 131 98
7.24169 270.167 -94.7451 0.89626 0.386116 0.21825 163 154 118
28.046 294.5 -92.0853 0 0 1 115 117 110
6.00017 289.945 -94.7049 -0.241162 -0.753726 0.611341 201 201 202
18.1948 294.192 -94.5605 0 0 1 180 185 148
6.55439 302.468 -94.7489 -0.427793 0.532602 -0.730293 192 192 155
24.2509 292.119 -87.8296 0 0 1 133 169 108
9.34325 277.177 -94.7563 -0.483432 0.157412 -0.861112 178 188 124
28.6845 303.997 -88.8131 0 0 1 146 169 135
14.6676 292.587 -94.7176 0 0 1 198 198 198
24.2218 284.057 -94.7583 -0.50696 0.8528 0.125399 222 225 226
12.5019 271.472 -94.7469 -0.122206 -0.114562 -0.985871 168 166 124
21.0022 272.972 -94.8044 -0.395279 -0.120044 -0.910683 172 170 126
18.2094 275.274 -94.8363 0 0 1 169 177 119
13.4725 288.453 -94.6607 0 0 1 217 219 222
10.0877 284.493 -94.7297 0.0565568 0.820711 0.568538 218 223 227
10.1213 272.099 -94.7751 0 0 1 166 168 117
29.963 296.524 -91.9553 0 0 1 97 100 77
15.3589 274.337 -94.8412 0 0 1 168 181 129
18.5654 287.023 -94.6455 0 0 1 223 227 229
19.9977 272.769 -94.8385 0.329633 -0.181995 -0.926402 175 173 127
14.3734 287.77 -94.8649 0 0 1 222 224 227
27.0658 299.221 -88.0673 0 0 1 100 99 83
24.3639 292.141 -87.618 0 0 1 179 195 141
29.214 290.101 -91.5614 0 0 1 133 172 164
19.2422 272.301 -94.8716 0.0336304 0.0470894 0.998324 190 191 157
29.0356 281.361 -94.6592 0.205206 0.0428099 -0.977782 218 222 223
27.676 273.72 -94.7509 0.0801691 -0.179447 -0.980496 200 203 202
20.6004 300.34 -84.797 0 0 1 85 112 89
22.4367 274.628 -94.796 0 0 1 171 172 114
18.4312 294.05 -94.5591 0 0 1 180 183 143
4.6275 294.845 -94.6636 0 0 1 159 165 104
5.54027 275.215 -94.8227 0 0 1 223 226 228
29.3497 287.631 -94.6934 0 0 1 179 184 153
10.964 291.541 -94.72 0 0 1 192 190 191
10.3047 286.97 -94.6696 0.857649 0.426022 -0.287999 218 223 226
5.37906 273.044 -94.7535 0 0 1 209 213 215
24.9585 291.879 -87.6813 0 0 1 146 154 120
4.48402 283.182 -94.8301 0 0 1 230 233 234
31.372 283.946 -94.7629 0 0 1 198 196 178
16.9182 291.947 -94.786 0.957627 0.244287 0.152558 195 192 193
5.15061 279.209 -94.8539 0 0 1 214 217 222
29.386 278.485 -94.7195 0 0 1 221 225 229
19.2139 290.498 -94.6405 0 0 1 201 201 201
20.2483 272.247 -94.8083 0.650709 -0.401818 -0.644298 156 157 155
31.2246 284.932 -94.6119 -0.474258 0.631924 -0.612986 201 198 171
21.1085 286.671 -94.6957 0.729788 -0.592888 -0.340431 223 227 227
12.6312 296.019 -94.6117 0 0 1 166 161 125
13.8265 274.811 -94.813 0 0 1 158 168 100
25.1864 303.082 -87.9091 0 0 1 139 159 105
6.89102 280.53 -94.781 0 0 1 215 220 224
14.4561 287.798 -94.7658 0 0 1 220 222 226
12.5707 285.86 -94.7999 0.323423 0.753776 0.57203 221 224 228
28.9116 300.327 -88.9568 0.460434 -0.506935 -0.728709 116 133 99
22.56 296.868 -85.2159 0 0 1 117 138 74
20.0647 281.265 -94.8223 0 0 1 219 243 246
5.3587 302.762 -94.7587 0 0 1 180 190 152
27.2208 294.682 -91.8198 0 0 1 109 110 101
10.8235 298.766 -94.7938 0 0 1 221 219 179
8.95718 277.276 -94.741 0 0 1 180 187 120
25.8704 280.173 -94.7752 0.952727 0.138905 -0.270216 223 226 230
8.97587 284.609 -94.6748 0.698599 0.534498 -0.47568 222 225 229
24.0359 302.409 -89.1124 0 0 1 43 48 37
25.5608 300.637 -88.2669 0 0 1 62 61 50
23.6609 282.554 -94.7435 0 0 1 225 227 229
31.4026 293.873 -86.7913 0 0 1 132 149 118
17.3775 271.851 -94.764 0 0 1 193 189 172
17.7954 295.662 -94.5806 0 0 1 179 177 141
31.5133 297.105 -98.2982 0 0 1 118 125 97
31.4894 286.396 -94.5971 -0.633352 -0.0150901 -0.773716 164 163 119
26.8822 291.912 -89.7036 0 0 1 100 114 83
14.6651 288.444 -94.7777 0 0 1 219 222 225
4.71746 289.305 -94.6721 0 0 1 199 200 199
16.2903 299.918 -86.4365 0 0 1 124 151 101
11.3891 289.844 -94.5686 0 0 1 209 209 211
12.4697 282.736 -94.7416 0 0 1 205 223 235
24.8824 273.65 -94.849 -0.494686 -0.259806 -0.829329 180 180 174
14.6011 292.385 -94.691 0 0 1 194 193 194
19.7478 292.096 -94.6168 0 0 1 190 190 186
6.71903 281.853 -94.8059 0 0 1 216 220 225
15.5515 275.85 -94.8103 0 0 1 194 205 145
13.6694 276.384 -94.7982 0.35163 0.346946 -0.869474 189 199 138
18.0361 274.826 -94.8248 0 0 1 158 169 111
8.42901 290.489 -94.6552 0.559683 -0.785584 0.263841 210 207 208
13.4839 286.924 -94.8336 0 0 1 222 227 231
6.4274 291.828 -94.5637 0 0 1 190 195 155
30.8688 270.074 -94.8387 0.838349 -0.244117 -0.48742 188 190 190
12.8141 297.874 -94.6761 0 0 1 198 194 155
20.9741 285.107 -94.7437 0.695466 0.150871 -0.702542 226 229 230
11.1283 284.548 -94.8787 0.188612 0.715773 -0.67238 217 220 225
18.3625 289.839 -94.7141 0.51602 -0.3997 -0.757604 202 206 208
6.91604 276.502 -94.8609 0.197034 -0.0457326 -0.979329 182 179 171
21.4742 296.447 -85.0625 0 0 1 53 66 38
16.1957 293.731 -94.6486 0 0 1 186 181 151
18.8835 297.899 -86.031 0 0 1 111 128 101
28.9459 285.09 -94.6599 0 0 1 202 202 202
22.4684 295.715 -85.0013 -0.50298 -0.387411 -0.772608 89 106 70
19.3818 283.452 -94.8472 0 0 1 225 229 230
11.0924 283.943 -94.7859 0 0 1 218 222 226
7.08581 286.47 -94.7497 0 0 1 216 218 222
13.3811 289.393 -94.8036 0 0 1 216 216 217
21.1206 270.565 -94.7903 -0.0546655 0.268567 -0.961709 201 199 197
6.30818 279.977 -94.732 0 0 1 215 217 222
24.0306 302.497 -89.2113 0 0 1 28 34 26
26.918 274.56 -94.7903 -0.361112 0.691129 0.62605 194 196 195
27.1828 277.61 -94.7176 0 0 1 221 223 227
25.1174 274.371 -94.8696 0.858664 0.433346 0.273692 172 163 156
16.7186 278.893 -94.7332 0.174814 0.960263 0.217568 187 196 128
26.1412 273.98 -94.8119 -0.638154 -0.714398 -0.287044 224 225 223
18.5401 278.405 -94.7747 0 0 1 182 197 124
7.77391 290.578 -94.6287 0 0 1 204 205 206
25.5281 299.057 -87.201 0 0 1 54 76 53
27.0431 279.723 -94.7594 0.846702 0.281521 -0.451489 222 225 229
20.5935 277.418 -94.816 -0.372581 -0.493354 -0.785993 189 196 136
22.2332 269.742 -94.8117 0 0 1 194 196 194
7.55611 304.153 -94.6547 0.126791 -0.358844 -0.924746 160 148 109
12.8601 286.245 -94.6376 0 0 1 222 226 230
24.7741 297.406 -86.1738 0 0 1 142 143 109
27.5992 271.182 -94.8207 0 0 1 221 218 217
23.0618 268.97 -94.8016 0.28471 -0.576273 -0.766061 189 194 194
27.2031 283.104 -94.7912 -0.601446 -0.772125 0.205151 217 219 220
27.2981 299.639 -88.1699 0.0075261 0.683598 -0.72982 111 111 91
13.9015 302.891 -87.4097 0 0 1 90 111 75
20.6483 286.891 -94.6857 0 0 1 224 226 227
28.6951 278.82 -94.8433 0 0 1 224 227 229
24.1697 280 -94.8031 0 0 1 221 223 226
21.5419 280.146 -94.8424 0.539373 -0.536196 -0.649285 219 218 212
6.27514 275.78 -94.8335 0.853522 -0.476262 0.211364 168 165 153
15.7851 270.104 -94.8191 0 0 1 172 176 176
27.6455 276.437 -94.7815 0.81008 -0.401313 0.427456 223 224 226
9.3072 291.214 -94.6015 0.875062 -0.160112 0.456761 200 200 201
14.1623 276.107 -94.8074 0.194335 -0.168482 -0.966358 188 195 133
14.5599 273.989 -94.8446 0.874725 -0.397946 -0.276579 137 153 97
8.75734 291.969 -94.7263 0 0 1 215 210 208
13.6611 289.785 -94.6354 0 0 1 210 211 213
5.35399 269.92 -94.6808 -0.0806939 0.948523 -0.306257 189 193 194
19.5969 287.185 -94.6474 0 0 1 228 229 230
20.7182 296.086 -85.6442 0 0 1 40 55 36
24.4515 279.293 -94.8611 0 0 1 221 223 225
28.8633 282.5 -94.7476 -0.250648 -0.953489 0.167434 222 225 226
5.95408 287.387 -94.6272 -0.123364 0.847493 -0.516272 213 213 215
9.02459 291.922 -94.6028 0 0 1 208 205 203
25.7681 286.287 -94.64 -0.0474944 -0.476424 -0.877932 215 219 218
22.7196 276.366 -94.8259 0.803209 0.393905 -0.446872 202 204 156
24.432 285.53 -94.6712 0 0 1 225 227 229
15.1514 292.23 -94.544 0 0 1 197 196 195
27.7615 279.907 -94.7796 0.983788 0.17547 -0.0370342 222 226 229
28.7828 277.804 -94.7824 0 0 1 221 225 228
25.418 270.008 -94.8816 0 0 1 207 212 211
9.62909 291.462 -94.5806 0 0 1 198 196 197
24.3348 276.132 -94.8314 0 0 1 195 191 147
22.4979 285.208 -94.7214 0 0 1 223 226 227
27.1012 270.482 -94.832 0.337252 -0.834121 -0.436466 180 177 176
27.8771 285.535 -94.6206 -0.33674 -0.827595 0.449103 211 211 212
21.9029 271.846 -94.768 0.713808 0.652513 -0.254373 185 189 187
25.9839 281.709 -94.7055 0 0 1 224 226 229
4.79634 279.208 -94.9153 0 0 1 170 177 177
24.2038 270.192 -94.8643 0 0 1 196 201 200
26.9156 279.403 -94.6216 0 0 1 222 225 228
18.8415 275.349 -94.8142 0 0 1 159 169 103
4.68089 273.184 -94.7441 0.0170927 -0.147382 -0.988932 210 212 216
28.1676 296.845 -89.7308 0 0 1 116 127 106
27.2971 271.204 -94.8005 0.381381 0.366012 -0.848872 206 207 209
31.4043 284.179 -94.7917 0 0 1 203 207 183
23.7182 275.077 -94.7952 0.154572 -0.270129 0.950336 176 177 121
29.649 270.938 -94.7822 0 0 1 192 195 194
28.9784 289.446 -94.25 0 0 1 177 210 191
15.9521 288 -94.6227 0 0 1 218 222 225
25.9127 302.999 -87.2599 0 0 1 185 200 161
7.50708 284.988 -94.7629 0 0 1 222 225 229
11.4043 278.727 -94.6961 0 0 1 186 192 128
4.65947 284.486 -94.7024 0.228986 -0.452425 -0.861903 224 226 229
8.91249 285.998 -94.5996 0 0 1 221 223 227
10.5423 298.295 -94.7012 0 0 1 184 182 139
9.83481 303.061 -94.7478 0 0 1 177 166 128
5.96735 283.821 -94.8653 0 0 1 186 192 193
17.2702 288.105 -94.6911 0 0 1 220 221 225
29.6189 278.734 -94.723 0 0 1 219 224 227
9.64762 291.222 -94.5372 0 0 1 201 200 199
30.0918 288.862 -88.3473 0 0 1 175 191 177
28.8575 281.049 -94.8444 0.665859 0.722223 0.187151 214 218 222
9.64066 291.828 -94.619 0.367861 -0.644615 0.670186 195 195 195
10.8719 276.967 -94.7551 -0.263242 -0.170708 -0.949506 158 169 104
12.3355 281.289 -94.7808 0.692104 -0.432927 -0.577552 171 178 136
17.3018 291.113 -94.7516 0 0 1 202 201 202
4.34318 296.642 -94.5921 0 0 1 165 170 124
30.0903 301.753 -90.2126 0 0 1 0 0 0
8.17656 283.226 -94.745 0 0 1 217 223 227
28.8728 287.501 -94.5958 0 0 1 192 191 161
4.41867 277.6 -94.751 0.721065 0.103618 0.685076 216 218 223
10.7085 293.14 -94.5816 0 0 1 200 195 157
4.52625 275.679 -94.9516 0 0 1 0 0 0
8.48016 302.852 -94.8114 0 0 1 154 155 122
22.2901 285.618 -94.7311 0 0 1 218 220 223
30.1959 291.298 -89.3369 0 0 1 143 152 144
18.2853 293.51 -94.6051 0 0 1 199 195 171
26.1191 285.462 -94.7289 0 0 1 223 225 224
19.0775 274.084 -94.8016 0 0 1 173 183 122
13.3756 277.21 -94.7551 0 0 1 196 203 143
31.0237 277.63 -94.7959 0 0 1 219 222 226
24.6748 292.173 -87.8273 0 0 1 88 100 58
12.0547 276.661 -94.7725 0.231203 0.416765 -0.87912 195 200 142
31.4083 281.434 -94.6609 -0.087864 0.925415 0.368629 220 223 221
8.83031 301.287 -94.7336 0.492169 0.830411 0.261128 203 199 165
28.5982 280.871 -94.6188 0 0 1 218 222 226
30.9266 297.509 -92.1301 0 0 1 61 69 52
27.7219 303.413 -87.407 0 0 1 187 194 160
26.6544 269.485 -94.8014 0 0 1 209 211 208
29.7756 292.707 -85.0839 0 0 1 153 170 138
8.10955 298.952 -94.6373 0.373536 -0.630194 0.680681 168 181 129
24.9868 281.369 -94.7286 0 0 1 224 228 230
6.33865 281.515 -94.8866 0 0 1 226 229 232
11.1021 303.593 -87.8649 0 0 1 188 208 158
4.9202 270.535 -94.6115 0 0 1 204 208 212
24.7988 293.357 -87.5933 -0.704541 0.708978 0.0311828 150 153 116
19.825 271.7 -94.7762 0 0 1 170 174 173
10.6291 269.632 -94.7206 0 0 1 203 199 193
31.5144 285.421 -94.6878 0.20652 -0.158774 -0.965474 188 186 155
23.3925 299.254 -85.8496 0 0 1 31 40 27
30.3021 287.92 -94.6015 0 0 1 173 177 143
27.8328 293.239 -92.9704 0 0 1 89 88 74
16.6772 299.96 -86.3151 0 0 1 88 104 70
12.3448 270.462 -94.7849 0 0 1 200 196 185
23.4364 292.858 -85.8151 0 0 1 125 159 94
23.7055 290.545 -94.5997 0 0 1 156 177 144
22.3659 288.102 -94.6245 0 0 1 216 218 217
30.7875 303.365 -88.8188 0 0 1 41 71 42
11.2033 285.186 -94.7655 0.000263666 -0.999063 0.0432758 218 222 226
27.8017 282.212 -94.7159 0.854725 0.305574 0.419607 221 223 225
31.0385 273.681 -94.7307 0 0 1 201 201 201
23.7025 279.173 -94.8394 0 0 1 221 222 223
27.1028 298.365 -87.2937 0.262122 0.232002 -0.936732 100 104 85
7.2923 276.842 -94.821 0.850931 -0.459331 0.254817 194 188 160
17.3919 289.287 -94.7128 0 0 1 211 211 215
16.7926 271.755 -94.8076 0.338327 -0.129562 -0.932067 189 186 171
25.3205 295.542 -91.1842 0 0 1 91 111 74
4.61196 282.22 -94.7137 0.665948 0.707687 0.235991 221 225 229
24.1851 285.464 -94.8119 0 0 1 225 227 228
29.1795 299.729 -94.5453 0 0 1 77 89 75
26.8137 282.173 -94.7729 0.531784 -0.626114 0.570252 221 225 229
17.757 278.11 -94.8036 -0.107568 -0.653161 -0.74954 194 213 142
5.62253 289.174 -94.7201 0 0 1 205 205 205
20.1387 283.808 -94.7719 0 0 1 224 228 231
27.2443 302.824 -87.7206 0 0 1 159 176 133
15.4745 301.102 -86.6881 0.62327 -0.666657 -0.408781 115 140 110
15.0964 302.673 -85.8505 0.809198 0.162456 -0.56463 105 128 67
16.6406 294.736 -94.5552 0 0 1 177 186 136
12.5798 297.719 -94.7036 0 0 1 189 182 143
23.5728 297.275 -85.381 0 0 1 109 130 66
8.32234 280.059 -94.9105 0.8989 -0.212222 0.383329 252 251 251
16.7102 274.531 -94.864 0 0 1 161 176 114
15.046 284.353 -94.8697 0 0 1 217 222 226
12.5679 297.841 -94.6674 0.89163 -0.288585 -0.348877 189 184 145
12.4863 286.114 -94.7396 0 0 1 222 226 230
9.93746 290.748 -94.5928 0 0 1 205 204 205
29.8915 299.343 -92.0067 0 0 1 73 85 68
14.136 288.008 -94.8255 0 0 1 220 224 227
9.96292 287.48 -94.7434 0.992862 -0.0877639 0.0807579 217 218 222
18.6664 303.403 -86.7566 0 0 1 75 109 56
12.6274 279.772 -94.7549 0.552183 0.517265 0.653859 187 194 124
15.6604 298.616 -88.1773 0 0 1 119 142 100
15.1625 274.677 -94.8712 0 0 1 150 160 108
5.0483 275.561 -94.8185 0.919455 -0.252303 0.301573 214 218 221
26.4311 275.183 -94.824 -0.297587 0.107514 -0.948621 196 199 198
7.57639 288.583 -94.7515 0.705887 -0.557113 -0.437434 215 215 216
17.4593 298.049 -86.7243 0 0 1 112 130 108
22.8175 269.82 -94.8078 0 0 1 207 212 213
8.81953 289.978 -94.7524 -0.261757 0.742379 -0.61673 202 201 203
21.8371 270.082 -94.7465 0 0 1 196 196 195
10.1682 303.052 -94.7425 0 0 1 182 174 137
9.8574 270.857 -94.7167 0 0 1 174 177 133
7.29696 274.109 -94.7304 0 0 1 173 178 128
5.39372 286.208 -94.6475 0 0 1 218 219 221
8.16684 283.767 -94.9045 0 0 1 199 208 211
15.8605 301.235 -86.1872 -0.407819 -0.886839 0.217256 134 156 110
15.5286 290.322 -94.7982 0 0 1 211 211 213
24.7484 302.083 -87.8317 0 0 1 39 58 48
21.7709 299.725 -85.4589 0 0 1 94 113 92
26.5956 293.968 -87.2122 0 0 1 172 181 162
17.253 277.412 -94.7854 0.387621 0.908776 0.154521 189 198 130
14.3191 293.781 -94.6906 0 0 1 190 187 150
30.1124 284.303 -94.6096 0 0 1 208 207 204
23.8999 299.451 -85.9915 0 0 1 100 127 79
19.1227 301.867 -86.9126 0 0 1 43 46 34
25.5897 293.863 -86.9266 0 0 1 174 180 127
31.0124 301.326 -89.66 0 0 1 10 20 12
11.7624 284.79 -94.8141 0 0 1 217 222 225
12.0429 289.405 -94.6267 0 0 1 208 208 210
19.4043 295.68 -87.3521 0 0 1 76 98 49
21.1587 273.147 -94.8049 -0.28167 -0.23443 -0.930432 163 164 123
5.20811 283.366 -94.7651 0 0 1 224 228 231
27.0712 277.183 -94.7794 0.560575 0.163634 -0.811776 221 224 226
6.42863 293.948 -94.5869 0.716948 -0.6733 0.180701 171 175 133
4.91813 290.544 -94.716 0 0 1 210 210 191
18.9871 281.654 -94.9537 0 0 1 251 251 249
5.77918 269.52 -94.6752 -0.313332 -0.630541 0.7101 185 191 190
29.4085 291.272 -94.5175 0 0 1 129 137 112
12.027 297.592 -94.6014 0 0 1 176 165 128
30.7612 286.206 -94.6478 0.685057 -0.295636 0.665805 190 189 155
20.6529 287.873 -94.7084 0.393047 0.917857 -0.0552543 220 222 220
22.9211 279.922 -94.8531 0 0 1 223 223 225
6.65182 279.97 -94.8972 0 0 1 224 228 230
12.5869 302.152 -89.2724 0 0 1 117 142 111
12.8641 296.977 -94.7462 0 0 1 166 161 126
6.74344 290.72 -94.5201 0 0 1 204 205 205
29.4269 268.805 -94.8252 0 0 1 223 223 223
20.9668 295.913 -84.6618 0 0 1 127 138 85
29.6671 285.575 -94.7206 0 0 1 212 212 204
10.0397 282.407 -94.7519 0 0 1 232 235 237
30.6437 298.084 -93.2875 0 0 1 0 0 0
20.8261 303.692 -87.7132 0 0 1 99 90 67
15.4362 292.727 -94.5182 0 0 1 195 195 194
27.9744 274.872 -94.7079 0 0 1 212 211 210
28.2535 288.373 -94.5881 0 0 1 170 173 143
11.1991 277.029 -94.7189 0.34161 0.367227 -0.865128 180 191 126
16.4077 300.154 -86.1685 0 0 1 84 110 76
12.5168 285.948 -94.7083 0 0 1 221 225 229
8.78961 279.399 -94.8302 -0.557246 0.229025 -0.798139 191 182 160
23.6997 300.193 -87.5071 0 0 1 51 61 49
17.1395 271.028 -94.7105 0 0 1 168 173 171
14.7582 300.841 -87.678 0 0 1 154 178 143
11.1241 278.604 -94.7357 0 0 1 188 195 133
7.24789 286.413 -94.7568 -0.632679 0.765958 0.114126 217 218 221
27.6025 279.723 -94.7148 0 0 1 222 224 228
14.2242 300.511 -88.7455 0 0 1 108 142 94
22.1386 293.539 -86.2524 0 0 1 93 114 69
26.3879 280.197 -94.6778 0 0 1 223 227 230
11.7289 283.049 -94.7907 0.715613 -0.46771 -0.518793 240 240 242
8.47435 269.568 -94.7226 -0.465097 0.413332 -0.782842 163 152 127
6.5886 294.9 -94.6592 0 0 1 179 189 152
27.4142 275.749 -94.791 -0.174753 -0.412358 -0.894104 213 213 213
17.8733 283.528 -94.8524 0 0 1 226 228 229
5.83017 284.6 -94.8625 0 0 1 224 226 229
11.384 285.295 -94.7773 0.126567 0.818589 -0.560262 217 223 228
5.29882 290.313 -94.6457 0.398741 0.322867 -0.858349 207 205 203
22.2941 301.505 -87.8235 0 0 1 0 0 0
9.65125 285.808 -94.7459 0 0 1 222 225 229
21.7836 291.8 -87.8501 0.783432 -0.500978 -0.367771 101 128 74
7.74772 296.123 -94.5924 -0.0883924 0.988543 -0.122351 181 188 147
8.71689 278.132 -94.7644 0.683522 0.337849 -0.647036 180 182 120
14.1366 291.737 -94.7362 0 0 1 205 206 207
24.2878 296.021 -86.5171 0 0 1 87 99 66
7.36715 276.19 -94.7404 0 0 1 181 180 134
22.2262 282.171 -94.7585 0 0 1 226 228 230
28.1889 298.23 -90.4319 0 0 1 79 88 72
26.7894 288.232 -94.6568 0 0 1 195 199 186
23.451 300.523 -87.2363 0 0 1 44 52 43
13.1775 288.964 -94.7197 0 0 1 213 214 216
23.6469 292.119 -86.9031 0 0 1 153 183 115
14.7118 299.135 -89.8242 0 0 1 172 189 159
17.676 280.907 -94.7493 0.988994 -0.0155513 0.147135 193 197 144
7.43952 270.197 -94.6968 0 0 1 163 154 118
13.4313 279.397 -94.7639 -0.469625 0.808728 -0.354135 194 202 138
27.5556 297.966 -90.486 0 0 1 101 102 85
23.6778 289.576 -94.6905 0 0 1 180 180 174
5.76097 279.703 -94.6664 0 0 1 215 220 224
15.6592 291.569 -94.6707 0 0 1 202 200 199
31.3247 286.234 -94.6014 0.734554 -0.15949 0.65954 186 193 170
18.9273 295.412 -87.7835 0 0 1 102 126 83
22.9823 279.215 -94.9727 0 0 1 234 235 233
29.4403 286.492 -94.6204 0.806779 -0.588845 -0.0486758 199 197 168
23.6799 292.598 -86.8894 0 0 1 91 119 69
4.58881 296.749 -94.596 -0.121237 0.301682 -0.945669 162 161 116
16.0825 274.481 -94.9042 0.680484 -0.289329 -0.673224 151 166 107
29.5481 290.436 -90.745 0 0 1 121 141 125
6.57751 292.033 -94.5668 0.212714 -0.971604 -0.103629 179 188 131
30.743 278.524 -94.7111 0.970508 -0.236013 0.0491144 221 224 228
27.4 282.205 -94.7682 0.177946 0.956161 0.232576 222 225 230
20.7624 298.322 -85.3444 0 0 1 97 115 72
15.7659 278.675 -94.737 0 0 1 187 202 137
14.7809 281.287 -94.7321 0.299828 -0.260239 -0.917812 183 192 124
6.80142 279.066 -94.8682 -0.0575863 -0.652957 -0.755203 220 223 226
29.9921 288.701 -88.5935 0 0 1 174 182 163
16.6022 301.203 -86.3738 0 0 1 113 132 107
11.7404 302.247 -94.7003 0.798322 0.575887 0.176169 168 157 122
11.1104 282.68 -94.9444 -0.0490604 0.757876 -0.650552 237 240 243
31.2478 301.985 -89.4239 0 0 1 27 46 31
22.7803 302.155 -87.7763 0 0 1 51 75 49
27.3515 299.999 -88.3747 0 0 1 85 85 70
9.07072 302.79 -94.674 0 0 1 172 161 121
18.9051 299.562 -85.3816 0 0 1 93 106 84
10.7479 287.145 -94.7607 0 0 1 217 222 225
22.8123 297.981 -85.4085 0.174323 0.815321 0.552144 78 98 61
30.6915 271.817 -94.7545 -0.6411 -0.42078 0.641822 191 194 195
11.9088 286.564 -94.8134 0 0 1 222 226 229
22.3518 275.949 -94.8312 0.104185 0.104074 -0.989098 195 196 139
17.2844 282.709 -94.9694 0 0 1 208 212 215
25.8596 269.553 -94.8015 0 0 1 212 217 214
25.5309 279.763 -94.6955 -0.259749 0.557352 -0.7886 222 226 229
26.3401 292.711 -87.4269 0 0 1 188 196 155
26.1777 298.32 -86.438 -0.289584 -0.681647 -0.671937 90 100 84
27.9722 299.684 -88.0755 0 0 1 66 71 48
5.12968 283.966 -94.8067 0 0 1 226 227 230
31.333 274.387 -94.7656 0.131465 0.75763 -0.639308 218 222 224
17.4013 297.014 -94.7027 0 0 1 173 169 137
14.4529 280.104 -94.7671 0.746025 0.580343 -0.326572 185 194 118
30.3757 272.097 -94.7351 0 0 1 193 194 196
30.9784 297.753 -92.09 0 0 1 46 58 43
13.0231 275.418 -94.8302 0 0 1 174 183 127
17.5972 295.615 -94.7365 0.971265 0.170747 -0.165802 165 167 125
29.9842 293.119 -94.8966 0 0 1 50 54 53
22.2445 291.377 -88.1093 0.164987 -0.267826 -0.949236 139 172 96
19.0451 288.259 -94.6684 0 0 1 221 223 222
31.3373 292.607 -87.2634 0 0 1 154 167 131
25.3749 282.417 -94.7275 0.82031 0.538094 -0.193767 223 226 228
25.534 292.054 -87.6913 -0.224371 -0.0315541 -0.973993 161 169 135
15.4557 272.098 -94.8807 0 0 1 178 176 126
5.95716 292.114 -94.6263 0.0773235 -0.37685 0.923041 156 177 109
22.85 285.553 -94.7326 0 0 1 218 221 221
16.3495 299.751 -86.6609 0 0 1 126 150 101
27.0966 269.509 -94.8019 0 0 1 201 204 203
29.1144 299.03 -89.8964 0 0 1 85 94 75
8.28474 280.538 -94.9024 -0.037177 0.18886 -0.9813 240 242 242
23.3737 301.899 -88.6937 0 0 1 26 32 25
4.64178 280.873 -94.7065 0.537294 0.222753 -0.813447 214 219 224
17.476 284.616 -94.7302 0 0 1 224 226 228
13.2871 286.105 -94.8272 0 0 1 220 224 228
8.56238 286.045 -94.6497 0 0 1 220 223 226
25.9289 279.455 -94.7986 0.432588 0.665972 0.607741 222 225 229
22.3432 294.237 -85.6284 0 0 1 109 127 81
28.2522 273.275 -94.7891 -0.0961371 0.366682 -0.925366 197 199 198
12.516 292.09 -94.4875 0 0 1 193 192 192
19.0008 270.883 -94.7581 0 0 1 170 177 174
4.84688 287.805 -94.776 0 0 1 209 209 211
11.472 272.414 -94.7477 0 0 1 134 138 97
5.72557 275.325 -94.7883 0 0 1 228 231 233
9.02985 287.823 -94.7031 0.836093 0.48572 0.254998 213 214 217
31.1773 285.93 -94.6065 0.262589 0.311265 -0.913324 182 182 152
10.9269 277.778 -94.7455 -0.291945 0.221372 -0.930463 179 183 124
27.6829 287.084 -94.6197 0 0 1 204 205 199
30.6043 302.758 -89.567 0 0 1 27 44 27
26.34 290.283 -90.5728 0 0 1 207 205 196
14.2958 277.179 -94.7806 0.82091 0.207149 -0.532161 186 193 134
10.2645 285.419 -94.7378 -0.541459 0.66415 -0.515488 222 226 230
31.4162 275.896 -94.6697 0 0 1 220 222 225
28.3659 277.438 -94.692 0 0 1 216 219 223
23.5118 279.197 -94.8804 0.771858 0.387722 0.503893 222 224 224
7.11276 283.363 -94.699 0 0 1 220 224 229
9.84084 292.085 -94.5773 0.722893 -0.480733 -0.496308 193 191 190
31.0361 298.33 -93.6709 0.0826684 -0.41736 -0.904973 79 91 66
23.5613 283.817 -94.7879 0.938538 0.325237 0.115615 225 228 230
8.72448 299.53 -94.755 0.780904 -0.0361541 -0.623604 177 190 143
21.0479 301.899 -86.841 0 0 1 65 75 54
18.6613 282.972 -94.834 -0.296783 -0.291515 -0.909362 226 229 232
6.34527 272.031 -94.6974 0 0 1 176 174 133
7.42436 302.372 -94.794 -0.540819 -0.465912 -0.700315 186 188 149
25.2273 302.949 -89.1562 0 0 1 15 22 15
27.0828 281.546 -94.8415 0 0 1 222 225 227
17.1251 280.05 -94.7287 0 0 1 189 199 135
24.5013 301.033 -87.6547 0 0 1 72 85 61
20.2428 297.173 -85.4311 0 0 1 112 143 86
30.7622 299.236 -93.7009 0 0 1 78 79 69
5.0181 282.303 -94.9069 0 0 1 223 227 230
26.2209 276.3 -94.7753 0 0 1 222 223 223
11.7095 290.222 -94.696 0 0 1 206 204 206
14.2901 292.391 -94.6112 0.145276 0.962506 -0.229079 196 195 195
14.8655 293.381 -94.6895 0 0 1 217 216 209
24.8064 294.98 -86.3726 0 0 1 169 180 140
23.1848 297.483 -85.2224 0 0 1 95 119 68
14.1931 296.068 -94.6162 0 0 1 188 195 150
30.0483 271.382 -94.8213 -0.474203 0.647179 -0.596902 192 196 195
6.17472 276.68 -94.8405 0.402411 0.894408 -0.195191 234 231 233
7.79532 279.921 -94.8009 0.75514 -0.560877 0.339381 236 237 242
28.9472 302.289 -89.6677 0 0 1 61 72 54
19.3743 294.957 -87.6464 0.911815 -0.183079 -0.367527 130 160 90
22.2892 291.794 -87.6703 0.300071 0.941489 -0.153478 70 93 49
16.5205 284.828 -94.7638 0 0 1 224 228 230
31.564 280.021 -94.6823 0 0 1 217 219 223
13.7905 300.379 -88.474 0 0 1 156 176 149
7.73844 269.539 -94.6816 0 0 1 165 153 118
14.7451 297.457 -94.7793 0 0 1 198 199 163
9.4038 278.479 -94.7126 -0.07636 -0.195136 -0.977799 182 189 117
8.85462 277.318 -94.7422 0 0 1 182 187 122
29.6376 276.777 -94.7401 0.909351 0.335784 -0.245621 222 223 225
5.05831 272.802 -94.7416 0 0 1 207 210 214
28.8454 268.876 -94.8044 0 0 1 210 211 210
9.63863 286.043 -94.8465 0 0 1 223 225 229
5.99958 303.586 -94.7001 0 0 1 181 170 137
19.2917 296.838 -86.0935 0 0 1 86 103 66
28.8013 282.314 -94.6615 0 0 1 217 220 222
4.57636 277.876 -94.8836 0 0 1 210 214 217
14.1184 285.648 -94.7535 0 0 1 217 221 225
15.3181 298.845 -94.7703 0.326621 0.441404 -0.835752 177 164 131
24.9858 302.122 -88.1285 0.178992 0.860471 -0.477023 72 82 62
14.2716 302.421 -86.5838 0 0 1 121 154 76
15.2342 281.731 -94.7582 0.571208 -0.220726 0.79057 184 189 140
21.969 300.91 -87.5323 0 0 1 36 52 48
11.3964 281.522 -94.8914 0 0 1 138 137 124
5.44944 269.146 -94.737 0.090443 -0.394457 -0.914453 187 193 193
30.944 285.074 -94.6651 0.595031 0.746039 -0.298939 198 196 166
7.31677 300.946 -94.8611 0 0 1 182 193 142
21.6597 300.296 -85.6293 0.337633 0.055858 -0.939619 71 87 74
7.0461 277.214 -94.7575 0 0 1 209 223 228
29.1054 276.397 -94.7652 0 0 1 217 221 224
22.6686 282.135 -94.7441 0 0 1 224 227 229
9.73358 292.886 -94.6665 0 0 1 202 201 175
23.3818 280.593 -94.7817 0 0 1 222 224 225
9.61183 291.605 -94.689 -0.267275 0.318702 -0.909392 195 194 195
7.68713 277.238 -94.885 -0.0788888 0.410939 -0.908243 186 182 147
17.3382 298.239 -86.7593 0 0 1 86 108 80
24.1516 294.564 -86.6871 0 0 1 155 177 139
20.7791 302.847 -87.2902 0 0 1 54 56 46
29.7778 269.458 -94.7997 0 0 1 198 199 196
4.34625 289.142 -94.56 0.98834 -0.0147243 0.15155 198 196 196
19.0542 289.525 -94.6247 -0.368237 -0.608557 0.702894 208 210 211
5.96243 287.8 -94.6159 0 0 1 212 212 214
23.6047 285.721 -94.7114 0.667652 0.696459 -0.26303 225 227 226
21.8247 280.473 -94.9666 0.481211 0.86923 0.113467 230 232 234
28.4917 279.939 -94.7367 0 0 1 222 226 230
29.117 270.304 -94.7847 0.761266 -0.525758 -0.379542 198 200 197
18.8646 279.632 -94.7559 0.976928 -0.201001 -0.0721764 206 210 157
9.39552 283.415 -94.7178 -0.509925 -0.644504 -0.569729 216 222 225
22.9278 296.587 -85.4146 -0.481685 -0.581436 -0.655676 108 123 66
15.7481 269.567 -94.8347 0 0 1 175 181 181
22.7842 298.153 -85.5865 0 0 1 88 101 56
15.0582 289.215 -94.8046 0 0 1 223 223 228
15.4232 292.953 -94.6555 0 0 1 203 202 199
23.0329 283.871 -94.8566 0 0 1 218 225 228
25.8091 300.998 -88.3083 0.102669 0.951355 0.290486 107 102 86
20.9755 287.02 -94.7163 -0.554716 0.591306 -0.585361 224 228 228
20.6712 283.115 -94.7693 0 0 1 225 228 230
18.5835 301.19 -86.199 0 0 1 53 76 68
7.04004 296.205 -94.5639 0 0 1 153 166 114
8.94173 292.819 -94.6245 0 0 1 187 191 145
4.96172 285.548 -94.6378 0 0 1 221 223 224
27.9044 281.937 -94.8154 0.720244 -0.193562 0.66617 221 223 225
11.057 283.505 -94.8356 0 0 1 218 222 226
28.2198 281.955 -94.7574 0.23097 0.37949 -0.895902 218 222 223
30.0457 290.43 -90.5216 0 0 1 65 74 66
13.7079 288.34 -94.8281 0 0 1 218 220 223
22.1627 298.379 -84.8979 0 0 1 47 69 46
15.7848 281.397 -94.7399 0 0 1 185 191 130
8.8992 293.873 -94.6043 0.989059 -0.144493 0.0297443 160 166 111
30.2182 286.741 -94.5532 0 0 1 179 185 141
16.4423 291.379 -94.6917 0.437336 0.484414 -0.757681 203 201 201
9.56012 282.04 -94.8873 -0.321708 0.255568 -0.911696 236 237 239
7.30545 281.832 -94.7876 0 0 1 218 223 227
22.8215 303.399 -87.8843 0 0 1 144 179 119
17.1767 275.56 -94.8342 0 0 1 168 176 114
26.8568 280.386 -94.8164 0.551549 0.817127 0.167624 224 228 231
22.0642 301.289 -87.3382 0.999836 0.0176159 -0.00427139 31 43 37
12.0034 277.081 -94.7364 0 0 1 200 206 149
11.5904 296.047 -94.6661 0.327317 -0.178724 -0.927859 179 176 136
10.1995 291.874 -94.5959 0 0 1 188 186 187
19.0891 273.416 -94.8242 0.473034 -0.0369776 -0.880268 181 180 128
9.79596 294.123 -94.6355 0.959859 0.172736 0.220981 165 176 122
22.588 285.493 -94.7138 0 0 1 217 219 225
28.67 301.617 -91.6522 0 0 1 60 85 60
27.2049 280.61 -94.7783 0 0 1 223 227 230
6.87424 289.121 -94.6818 0.735353 0.317125 0.598906 207 207 209
8.13733 287.844 -94.6202 -0.573317 0.819316 -0.00537913 213 215 215
31.5466 287.216 -94.6473 0 0 1 157 162 124
24.6548 297.34 -86.2772 0.956967 -0.0491667 -0.286 136 140 106
15.2361 270.129 -94.8209 0 0 1 172 177 175
25.4656 300.071 -87.8463 0 0 1 33 42 31
11.4135 279.936 -94.7443 0 0 1 186 193 126
20.7863 285.891 -94.7047 0 0 1 224 228 230
16.4517 301.367 -86.4326 0 0 1 105 131 105
31.411 280.45 -94.6664 -0.0540002 -0.57809 0.814184 219 221 224
14.954 299.708 -88.4865 0 0 1 84 101 73
8.80451 274.25 -94.7106 0.640059 0.413581 0.647515 127 131 86
12.1603 288.704 -94.6606 0 0 1 214 215 218
26.0213 290.024 -94.5862 0 0 1 162 140 114
6.96849 301.83 -94.704 0 0 1 203 201 164
16.5794 297.106 -88.8219 0 0 1 121 140 119
11.5066 297.522 -94.7457 0 0 1 175 169 123
8.71227 298.927 -94.6397 0.734455 -0.528455 0.425807 162 178 123
28.559 278.403 -94.662 0 0 1 221 226 229
21.6119 272.215 -94.8591 0 0 1 181 186 183
6.48901 285.044 -94.7093 0.900793 0.360022 -0.242808 220 224 227
9.52439 302.609 -94.6485 0 0 1 158 172 126
29.1048 284.523 -94.7224 0.00449924 0.628471 0.77782 212 213 215
30.338 288.467 -88.7798 -0.0823651 0.630906 -0.771475 174 176 153
6.59906 280.195 -94.9008 0 0 1 214 217 222
31.2585 283.92 -94.6286 0.570568 0.733823 -0.368723 203 202 180
31.5513 284.398 -94.6086 0 0 1 195 191 168
27.1458 269.248 -94.8155 0 0 1 206 209 208
23.3084 298.336 -85.1122 0.787717 0.0515072 -0.61388 60 80 45
12.1388 280.353 -94.7739 -0.00931861 0.843775 -0.536616 183 192 123
14.31 291.938 -94.56 0 0 1 197 197 198
22.5822 289.872 -94.614 0.7387 -0.466709 -0.486317 167 171 142
26.3972 281.194 -94.7244 -0.22736 -0.298681 -0.926875 223 227 230
5.4714 281.175 -94.7021 0.536036 -0.62798 0.564186 218 221 225
14.925 288.717 -94.8615 0 0 1 226 227 229
23.4636 272.127 -94.8549 0 0 1 190 191 188
5.7238 298.68 -94.7543 0 0 1 150 173 101
6.24819 292.104 -94.5324 0 0 1 171 176 122
5.26068 292.589 -94.5191 0 0 1 163 175 110
30.9413 281.555 -94.6042 0 0 1 220 222 221
27.1996 278.194 -94.7339 0 0 1 222 224 227
19.9294 281.152 -94.9523 -0.25108 0.858036 -0.448032 186 246 248
20.9295 270.189 -94.7555 0 0 1 177 180 179
6.66735 271.042 -94.7133 -0.329178 0.253534 -0.909595 161 157 117
9.87636 280.4 -94.8852 0.54902 -0.451789 0.703181 157 149 134
14.8666 300.316 -87.9932 0 0 1 81 102 70
13.138 287.342 -94.6787 0 0 1 222 226 230
20.9885 271.014 -94.775 0 0 1 202 201 199
20.1354 286.223 -94.6864 0 0 1 223 226 228
24.7679 300.043 -87.8485 0 0 1 99 109 95
8.40919 286.156 -94.7702 0 0 1 218 222 225
28.2157 300.541 -88.2433 0 0 1 127 133 108
14.931 298.325 -94.7122 0 0 1 176 174 138
5.39001 287.622 -94.6404 0 0 1 211 210 211
30.9271 272.218 -94.7417 0 0 1 190 194 195
11.6953 293.874 -94.6369 0 0 1 173 176 121
16.7642 284.191 -94.7909 0.200785 0.836353 -0.510098 226 228 230
27.1672 287.421 -94.6563 0 0 1 196 196 191
23.1309 275.198 -94.8552 0.1053 0.991539 -0.0759044 180 182 125
11.5627 281.76 -94.8078 0 0 1 169 146 152
28.9767 288.885 -94.5994 0 0 1 169 172 140
16.1481 291.476 -94.554 0 0 1 203 202 203
25.7758 291.495 -87.9376 0 0 1 156 166 122
11.121 292.675 -94.5372 0 0 1 191 188 188
28.2857 287.239 -94.7195 0 0 1 202 201 192
22.7286 291.04 -87.8783 0 0 1 121 148 97
25.6778 302.84 -87.5514 0 0 1 120 146 99
6.09755 300.129 -94.799 0 0 1 160 188 126
15.0542 275.4 -94.8464 -0.0505068 0.807774 0.587324 161 171 104
4.80919 290.967 -94.6932 0 0 1 174 173 132
24.7788 301.053 -87.7845 -0.316154 -0.342717 -0.884642 101 98 77
15.4776 301.252 -86.4059 0 0 1 112 136 107
27.6557 298.908 -87.7031 0 0 1 121 121 96
16.6409 282.177 -94.7722 0.182395 0.030052 -0.982766 185 182 163
20.8157 297.715 -84.874 0 0 1 60 88 59
10.105 299.729 -94.7275 0.147626 0.642089 -0.752282 191 195 144
11.8174 273.723 -94.8343 0.296069 -0.0457132 -0.954072 153 155 106
30.3187 277.784 -94.7127 0 0 1 218 222 225
12.2137 293.757 -94.4896 0 0 1 184 184 136
30.1734 275.732 -94.7229 -0.653111 0.757128 0.0142387 216 219 221
6.95113 281.111 -94.8146 -0.542632 0.82551 -0.155191 216 221 224
15.4049 300.72 -87.2526 0 0 1 69 88 64
24.6787 293.616 -87.5186 -0.519503 0.525505 -0.673767 152 167 137
14.8032 284.12 -94.7347 0 0 1 213 215 219
28.3317 274.232 -94.7591 0 0 1 212 211 211
14.987 281.077 -94.7343 -0.136086 0.212238 -0.967696 185 194 125
6.44977 272.224 -94.7227 0 0 1 173 166 121
29.8767 279.014 -94.7441 -0.588385 0.515724 -0.622762 219 224 228
26.5555 284.645 -94.7305 0.407483 -0.535761 0.739539 225 228 231
17.4546 288.325 -94.6797 0.0302871 0.187194 -0.981856 219 220 225
28.4888 302.093 -91.8609 0 0 1 59 72 54
22.5808 273.852 -94.8757 0 0 1 163 168 115
27.024 270.922 -94.7602 0 0 1 202 204 202
24.1569 299.75 -87.6309 0 0 1 25 33 24
20.2078 292.8 -88.0074 0.447461 0.379198 -0.80993 114 139 88
9.92324 289.075 -94.7882 -0.644179 -0.375859 0.666156 211 211 212
12.858 273.34 -94.8282 -0.284611 0.17398 -0.942724 172 179 133
31.0099 282.411 -94.6694 -0.313314 0.897893 -0.309228 222 224 220
18.4526 270.484 -94.8804 -0.482417 0.864725 0.139732 176 182 181
29.688 286.77 -94.5549 0 0 1 199 199 172
19.1124 271.034 -94.8756 0.593177 -0.321877 -0.737927 181 180 178
12.2643 297.07 -94.5774 0.282379 -0.400631 -0.87164 164 159 118
28.7556 282.984 -94.7274 -0.377321 0.607894 -0.698637 225 227 228
5.69432 295.463 -94.5799 0.11274 0.778277 -0.617717 164 167 115
27.3973 285.304 -94.6652 -0.504607 0.856619 -0.107591 219 219 219
29.81 300.348 -88.9024 0 0 1 64 79 64
25.7626 288.67 -94.6325 0 0 1 174 174 157
11.8555 281 -94.8253 0 0 1 180 188 138
24.6368 276.953 -94.803 0 0 1 232 233 231
29.0215 280.385 -94.7196 0 0 1 219 222 225
21.5796 293.233 -86.3087 0 0 1 137 160 112
5.12869 279.324 -94.7601 0.844633 0.090865 -0.527577 214 217 222
11.2184 288.915 -94.8271 0 0 1 209 209 211
16.5431 291.484 -94.603 0 0 1 203 201 199
7.00793 298.397 -94.5944 0 0 1 161 181 110
10.3285 274.684 -94.7653 0.269362 0.461946 0.845015 179 178 125
18.6441 288.266 -94.6851 0 0 1 223 225 226
13.3199 272.999 -94.8615 0 0 1 186 188 146
9.05731 274.917 -94.682 0 0 1 145 146 103
22.0286 297.027 -84.6915 0 0 1 100 123 62
20.2968 279.935 -94.8366 0.889065 -0.380915 -0.253902 197 198 146
7.85629 277.82 -94.8284 0.696334 0.305196 -0.649595 170 166 131
16.1204 292.811 -94.5954 -0.35083 -0.826521 0.440206 200 198 199
17.3083 275.81 -94.8254 0.0697149 0.070786 -0.995052 168 173 111
10.5481 297.404 -94.6417 0.944067 0.324603 -0.0580545 171 177 127
10.4886 277.118 -94.7431 -0.538642 -0.213831 -0.814948 166 167 114
23.6474 285.502 -94.8505 0 0 1 225 227 226
23.168 270.036 -94.8055 0.811595 -0.0682525 0.580219 194 198 199
18.6449 271.111 -94.8104 0.849506 0.352078 0.392913 183 180 177
21.3432 301.752 -86.6527 0 0 1 53 60 43
26.195 282.304 -94.7809 0 0 1 221 223 228
6.05496 298.561 -94.7607 0 0 1 155 177 110
24.8039 284.873 -94.7698 0 0 1 222 225 225
13.4969 268.757 -94.7638 0 0 1 178 183 183
15.7985 279.258 -94.7451 0.181084 -0.113712 -0.976872 189 199 130
19.0441 281.36 -94.7568 0.26528 0.786233 0.55809 221 216 182
8.07383 303.731 -94.7483 0 0 1 162 159 115
14.5169 303.073 -85.8776 0.204025 -0.857947 0.471488 107 130 74
28.2431 287.519 -94.6676 0 0 1 204 202 191
15.8151 297.692 -89.1795 0 0 1 144 148 98
15.5429 270.057 -94.7523 -0.703414 0.708098 -0.0616989 173 178 178
20.3246 269.23 -94.7564 -0.311713 0.900775 -0.302391 178 185 184
18.6147 280.098 -94.8011 0 0 1 196 202 140
17.8925 271.297 -94.764 0 0 1 191 190 188
9.22867 302.811 -94.6624 0 0 1 177 167 127
16.0586 293.635 -94.7507 0 0 1 213 206 191
27.6292 299.377 -88.1887 0 0 1 102 102 79
7.30585 273.161 -94.6741 0.577528 0.754092 -0.312741 143 146 95
24.5898 298.098 -86.5872 0 0 1 59 62 47
24.9188 276.797 -94.7676 0.69078 0.682522 0.238719 230 230 228
29.7527 293.882 -85.6655 0.951324 -0.121991 0.283019 128 155 131
27.6614 288.317 -94.6706 0 0 1 199 195 186
8.64987 302.772 -94.6581 0 0 1 171 159 121
5.11432 286.22 -94.7584 0.0414096 -0.465326 -0.88417 218 218 220
29.8822 279.098 -94.6967 -0.451079 0.192921 -0.871384 220 224 228
8.33716 281.874 -94.8194 0 0 1 222 226 229
10.6834 282.932 -94.9118 -0.187519 0.95756 -0.218898 204 206 210
17.9343 281.027 -94.8024 0 0 1 186 194 134
10.2161 286.269 -94.6392 0 0 1 223 226 230
27.3443 289.409 -94.5664 0 0 1 170 161 127
7.1276 271.534 -94.6626 0 0 1 149 148 100
6.04716 294.057 -94.6316 -0.35159 -0.00986594 -0.936102 180 188 146
10.4856 289.653 -94.6607 0.263013 0.905142 0.33398 208 207 210
14.0672 287.29 -94.8154 0.768932 0.0750223 0.634914 223 227 230
30.6995 273.789 -94.7456 0 0 1 199 198 198
25.6518 292.051 -87.9714 0 0 1 170 168 126
30.3152 293.371 -91.6201 0 0 1 70 75 65
12.5477 288.789 -94.7556 0 0 1 213 213 216
15.5794 299.794 -87.4098 0 0 1 98 127 84
9.90379 299.467 -94.7267 -0.22074 0.879494 -0.42162 176 182 127
27.8062 278.096 -94.7425 0.740334 -0.667898 -0.076274 219 223 226
6.91807 297.785 -94.5939 0 0 1 165 180 124
5.81129 287.265 -94.644 0 0 1 214 213 215
27.2823 284.425 -94.6855 0.518668 0.0415884 0.853964 222 225 226
7.4906 282.953 -94.7662 0 0 1 219 224 228
13.1037 285.324 -94.8809 -0.715798 -0.196876 -0.66998 218 222 226
27.351 292.892 -91.3416 0 0 1 174 184 172
6.97009 293.591 -94.5794 -0.364597 0.921343 -0.134892 159 170 116
20.1756 270.707 -94.8602 0 0 1 190 191 187
11.3297 288.257 -94.6462 0 0 1 215 215 219
