ply
format ascii 1.0
comment Created by Open3D
element vertex 1134
property double x
property double y
property double z
property double nx
property double ny
property double nz
property uchar red
property uchar green
property uchar blue
end_header
28.9326 272.348 -94.7739 0 0 1 198 202 201
12.9166 275.431 -94.819 0 0 1 174 183 127
15.5844 280.401 -94.7522 0 0 1 190 199 135
17.3418 269.031 -94.7199 0 0 1 186 192 192
13.0535 302.009 -87.9928 0 0 1 122 148 126
23.4116 300.008 -87.4235 0 0 1 0 0 0
19.4956 271.779 -94.9466 0 0 1 168 171 170
22.2216 288.871 -94.7158 0 0 1 194 194 190
13.6381 281.44 -94.8222 0 0 1 176 186 126
24.6026 289.61 -94.6556 0 0 1 167 178 161
28.7358 299.79 -92.5771 0 0 1 73 78 61
15.7641 279.987 -94.8459 0 0 1 186 195 125
20.4737 276.77 -94.7724 0 0 1 187 197 131
19.6593 292.533 -90.296 0 0 1 184 187 162
6.95905 294.671 -94.5304 0 0 1 169 173 136
9.05655 277.222 -94.7398 0 0 1 178 186 119
18.559 301.916 -86.6028 0 0 1 52 69 59
15.0207 274.315 -94.9123 0 0 1 160 171 118
22.2086 292.761 -87.352 0 0 1 74 88 59
5.28868 287.927 -94.6179 0 0 1 208 208 208
20.6825 297.923 -84.834 0 0 1 45 66 42
6.64117 297.777 -94.7215 0 0 1 163 172 118
12.9764 295.249 -94.5078 0 0 1 183 183 139
30.586 281.243 -94.625 0 0 1 222 223 223
13.296 301.231 -88.9583 0 0 1 115 139 112
21.8166 269.598 -94.8276 0 0 1 179 185 185
28.2861 291.058 -90.731 0 0 1 148 157 137
26.5082 286.453 -94.7179 0 0 1 210 210 209
27.4544 297.214 -90.5637 0 0 1 86 94 79
31.0934 300.025 -88.2033 0 0 1 58 83 60
13.119 289.263 -94.9627 0 0 1 0 0 0
26.8552 287.852 -94.5702 0 0 1 198 199 191
30.9702 293.186 -92.0973 0 0 1 88 91 79
29.5014 269.849 -94.7538 0 0 1 193 197 194
26.2392 303.072 -87.195 0 0 1 181 195 158
15.3796 294.803 -94.6352 0 0 1 177 185 139
22.9422 272.797 -94.8298 0 0 1 191 194 189
8.52539 294.746 -94.612 0 0 1 182 192 148
14.6501 281.344 -94.6828 0 0 1 182 188 125
14.1643 292.518 -94.5955 0 0 1 196 196 196
18.7139 280.723 -94.7083 0 0 1 193 198 141
7.83891 276.125 -94.7526 0 0 1 189 191 142
24.5099 288.223 -94.6259 0 0 1 177 179 176
6.15732 295.292 -94.6491 0 0 1 177 182 137
24.1211 293.688 -87.0863 0 0 1 137 153 126
23.9782 303.054 -87.5705 0 0 1 174 177 132
19.4206 298.319 -85.8064 0 0 1 83 98 71
11.617 277.39 -94.7572 0 0 1 203 212 161
22.1515 276.939 -94.7931 0 0 1 196 202 145
27.8029 292.814 -91.9082 0 0 1 147 149 139
19.0284 303.418 -87.1942 0 0 1 55 69 39
29.5744 294.605 -86.2225 0 0 1 90 91 77
6.61956 285.965 -94.9147 0 0 1 0 0 0
19.6072 280.452 -94.7806 0 0 1 194 197 144
26.259 275.27 -94.8665 0 0 1 197 201 200
27.2685 271.723 -94.8172 0 0 1 231 231 231
30.9967 288.839 -90.2031 0 0 1 151 163 143
22.8286 279.722 -94.8994 0 0 1 227 230 227
16.538 278.085 -94.8422 0 0 1 191 203 127
21.9423 272.069 -94.7991 0 0 1 183 188 186
28.9742 283.797 -94.7364 0 0 1 222 223 223
11.8684 279.772 -94.73 0 0 1 188 193 126
20.3018 303.549 -87.1736 0 0 1 55 55 41
31.3578 294.517 -95.7521 0 0 1 57 71 62
21.6522 301.124 -86.2064 0 0 1 30 47 42
29.4243 281.952 -94.6526 0 0 1 219 220 220
30.6181 297.713 -92.1763 0 0 1 65 85 66
20.0727 296.076 -85.8549 0 0 1 79 91 57
17.8129 277.508 -94.8417 0 0 1 187 206 136
31.052 273.605 -94.7141 0 0 1 202 202 201
24.2864 273.191 -94.85 0 0 1 185 185 180
4.29531 291.635 -94.5625 0 0 1 155 171 104
14.93 296.736 -94.5917 0 0 1 183 191 137
21.6302 275.935 -94.8471 0 0 1 189 198 129
28.8236 271.469 -94.7702 0 0 1 197 198 197
24.0304 300.191 -87.6631 0 0 1 78 84 64
25.6828 299.289 -87.1426 0 0 1 67 87 51
27.2719 294.047 -91.8932 0 0 1 103 113 100
15.7075 301.137 -86.2324 0 0 1 125 143 105
21.2666 301.149 -86.3162 0 0 1 37 55 48
21.6349 299.185 -85.7414 0 0 1 76 86 65
17.8522 276.057 -94.8325 0 0 1 185 193 137
27.2576 296.813 -89.9095 0 0 1 127 133 114
5.90869 300.046 -94.6977 0 0 1 158 184 119
22.9882 298.873 -85.3755 0 0 1 52 81 52
10.1022 270.888 -94.7063 0 0 1 179 185 140
25.853 275.954 -94.8213 0 0 1 213 213 209
23.9867 302.887 -89.1446 0 0 1 33 44 32
5.35676 292.695 -94.562 0 0 1 159 177 109
25.3457 301.399 -87.9381 0 0 1 136 142 111
8.69444 294.979 -94.6499 0 0 1 168 186 131
24.6279 287.225 -94.6673 0 0 1 217 217 214
30.2075 297.736 -92.2519 0 0 1 70 75 59
15.1639 296.283 -94.7393 0 0 1 174 182 129
27.2034 270.178 -94.8333 0 0 1 166 166 166
22.6276 289.519 -94.6871 0 0 1 171 173 169
30.1102 303.265 -87.2225 0 0 1 127 173 105
26.4637 271.182 -94.7744 0 0 1 207 211 210
23.5014 295.991 -85.965 0 0 1 0 0 0
27.2491 295.986 -90.6009 0 0 1 147 156 142
22.3191 269.615 -94.8325 0 0 1 182 190 189
15.2929 296.108 -94.5731 0 0 1 183 190 139
24.562 298.565 -87.3045 0 0 1 39 55 41
29.1844 291.965 -90.7371 0 0 1 113 116 106
28.7462 287.888 -94.6556 0 0 1 191 193 160
11.725 298.396 -94.7112 0 0 1 177 179 129
19.1104 269.521 -94.8074 0 0 1 177 183 183
23.0134 270.868 -94.9488 0 0 1 176 181 181
14.3812 279.37 -94.7651 0 0 1 185 196 124
18.69 298.252 -85.9031 0 0 1 153 178 137
26.0452 298.576 -87.7363 0 0 1 63 70 56
6.26397 297.842 -94.6352 0 0 1 171 181 121
26.5393 299.09 -87.8477 0 0 1 83 91 75
29.274 294.215 -91.9534 0 0 1 86 89 77
24.8221 302.253 -88.9501 0 0 1 19 25 18
26.8674 296.201 -86.1607 0 0 1 157 167 132
23.5794 288.018 -94.6622 0 0 1 208 211 206
12.5636 271.995 -94.7711 0 0 1 173 181 137
26.1412 291.376 -88.166 0 0 1 183 187 166
27.4242 297.767 -87.1533 0 0 1 142 147 127
17.6084 276.556 -94.7956 0 0 1 186 193 128
25.1941 289.198 -94.5904 0 0 1 150 150 144
19.7128 303.643 -87.4015 0 0 1 46 47 35
5.7687 297.469 -94.6873 0 0 1 174 185 126
25.2593 273.293 -94.8551 0 0 1 169 172 169
16.1885 271.035 -94.7731 0 0 1 192 193 190
5.74727 293.566 -94.6283 0 0 1 172 180 125
25.2312 271.036 -94.8835 0 0 1 199 203 200
28.7625 296.629 -90.2147 0 0 1 122 126 113
18.2767 278.13 -94.7934 0 0 1 191 207 140
19.5859 302.051 -86.2699 0 0 1 53 59 48
15.5823 280.212 -94.7857 0 0 1 188 197 130
25.9798 285.664 -94.7281 0 0 1 223 225 223
30.0087 299.972 -91.2141 0 0 1 82 87 69
27.064 292.534 -88.7692 0 0 1 185 187 163
15.7848 298.506 -88.1488 0 0 1 122 146 110
26.9187 295.71 -86.1962 0 0 1 168 168 148
13.3062 301.3 -88.459 0 0 1 137 159 137
23.9741 303.158 -87.8806 0 0 1 162 169 138
18.2385 294.268 -94.7411 0 0 1 184 191 144
15.3047 280.918 -94.7449 0 0 1 189 198 131
28.4704 282.761 -94.663 0 0 1 221 223 222
22.8375 302.211 -88.016 0 0 1 60 82 51
6.7251 282.521 -95.0037 0 0 1 0 0 0
20.3674 277.591 -94.7965 0 0 1 197 212 144
13.841 278.968 -94.8068 0 0 1 185 198 127
23.0957 301.314 -87.9924 0 0 1 50 55 45
24.5801 296.346 -86.2102 0 0 1 87 99 69
18.3595 276.682 -94.7872 0 0 1 184 193 127
31.3792 288.137 -93.9157 0 0 1 107 235 205
14.7967 280.654 -94.8123 0 0 1 187 194 127
21.2746 288.499 -94.6469 0 0 1 201 201 199
30.1677 301.548 -89.9119 0 0 1 52 75 52
22.4445 302.869 -87.8673 0 0 1 58 81 51
5.91849 300.772 -94.7217 0 0 1 178 186 135
27.607 291.625 -90.5546 0 0 1 0 0 0
5.19674 293.108 -94.5491 0 0 1 165 176 114
28.7745 297.24 -91.137 0 0 1 105 120 102
28.9986 281.096 -94.831 0 0 1 186 192 192
29.699 292.778 -85.659 0 0 1 153 165 123
26.0752 294.777 -90.6401 0 0 1 136 148 129
14.6784 275.02 -94.8135 0 0 1 152 169 104
14.6322 301.009 -87.8061 0 0 1 144 161 132
30.1434 287.674 -94.6793 0 0 1 166 183 150
10.3682 297.171 -94.7102 0 0 1 157 167 115
7.10196 294.875 -94.5459 0 0 1 153 177 120
5.05645 298.423 -94.643 0 0 1 189 191 146
24.0542 286.889 -94.6786 0 0 1 220 222 221
31.5483 298.428 -86.3471 0 0 1 155 156 122
12.3484 271.82 -94.7504 0 0 1 170 176 132
9.02327 299.826 -94.6367 0 0 1 200 201 163
21.487 274.651 -94.8389 0 0 1 172 174 112
20.9608 298.928 -85.4351 0 0 1 0 0 0
29.2259 297.587 -91.78 0 0 1 150 159 124
23.6192 301.405 -89.1694 0 0 1 40 48 40
23.5401 291.19 -94.6663 0 0 1 183 184 154
27.0121 300.704 -88.7919 0 0 1 92 97 83
13.4953 276.912 -94.8205 0 0 1 185 191 133
29.9247 301.116 -100.963 0 0 1 31 36 32
21.7956 288.204 -94.6803 0 0 1 216 216 215
13.176 294.569 -94.594 0 0 1 174 180 127
7.11802 300.051 -94.7196 0 0 1 165 177 120
30.2332 273.542 -94.6993 0 0 1 205 205 204
30.2869 303.585 -87.4268 0 0 1 121 157 105
19.4405 300.314 -85.3206 0 0 1 61 82 68
13.7795 301.119 -87.8579 0 0 1 121 144 125
26.0106 287.84 -94.6423 0 0 1 193 193 191
20.8599 269.824 -94.7663 0 0 1 177 180 180
10.3429 297.552 -94.7009 0 0 1 160 171 118
25.7033 296.015 -85.9906 0 0 1 149 151 123
29.7718 270.932 -94.7871 0 0 1 191 194 193
4.91374 292.637 -94.5379 0 0 1 160 170 103
19.2265 302.155 -86.6985 0 0 1 44 46 35
30.1416 293.086 -85.8471 0 0 1 166 177 144
5.63297 270.461 -94.6387 0 0 1 187 191 190
13.4901 279.921 -94.748 0 0 1 190 196 133
15.195 295.731 -94.5706 0 0 1 176 184 133
10.5718 294.122 -94.6289 0 0 1 171 176 127
23.633 295.058 -86.172 0 0 1 135 149 108
28.3521 289.055 -94.5679 0 0 1 149 153 126
25.2402 294.922 -86.3734 0 0 1 170 177 144
28.5485 294.152 -85.9067 0 0 1 137 146 143
27.821 291.932 -90.5822 0 0 1 177 177 167
14.7412 269.945 -94.7784 0 0 1 171 175 174
23.7543 301.806 -88.4269 0 0 1 35 40 34
14.7534 269.004 -94.7962 0 0 1 178 183 183
20.6676 295.287 -85.263 0 0 1 49 65 40
11.3792 298.571 -94.735 0 0 1 182 184 134
7.82426 300.467 -94.781 0 0 1 164 180 124
23.6491 302.929 -88.9481 0 0 1 25 33 20
5.61788 274.126 -94.8997 0 0 1 224 229 229
26.1601 301.509 -88.7071 0 0 1 87 90 71
28.2392 303.457 -88.5546 0 0 1 165 196 148
27.9399 291.398 -90.6182 0 0 1 111 124 102
5.6912 294.605 -94.729 0 0 1 161 168 113
13.3378 297.496 -94.6092 0 0 1 184 185 141
12.4379 294.641 -94.5331 0 0 1 166 167 117
9.65129 279.415 -94.7881 0 0 1 175 179 120
23.8812 277.635 -94.831 0 0 1 234 235 233
12.3398 277.145 -94.7573 0 0 1 198 204 147
24.8668 293.052 -87.6101 0 0 1 136 147 109
22.8453 293.214 -85.8714 0 0 1 57 82 51
15.8939 298.519 -88.1218 0 0 1 140 167 128
13.4658 302.984 -87.0299 0 0 1 126 146 114
5.16536 293.471 -94.5458 0 0 1 157 169 113
23.6995 293.566 -86.8182 0 0 1 156 179 136
10.5215 296.152 -94.5344 0 0 1 167 173 124
17.8826 275.54 -94.8303 0 0 1 170 179 126
12.1988 293.758 -94.6804 0 0 1 177 181 127
29.6498 292.972 -85.4558 0 0 1 176 178 166
8.51076 293.567 -94.5492 0 0 1 163 171 119
7.2838 292.98 -94.5364 0 0 1 157 170 110
20.7058 277.957 -94.8184 0 0 1 198 203 148
27.2885 297.179 -88.8035 0 0 1 135 146 131
29.5989 291.065 -90.0378 0 0 1 68 70 61
27.1837 287.202 -94.5999 0 0 1 201 204 196
8.84134 299.408 -94.7822 0 0 1 181 189 145
13.7943 277.28 -94.8093 0 0 1 197 203 145
20.4954 296.468 -85.5503 0 0 1 64 83 48
26.4404 302.84 -89.2473 0 0 1 153 173 118
25.1863 271.322 -94.8711 0 0 1 200 202 199
6.60416 297.864 -94.6954 0 0 1 162 172 115
7.53016 296.46 -94.5319 0 0 1 179 186 141
21.4684 272.021 -94.85 0 0 1 182 187 183
25.9508 290.426 -90.5556 0 0 1 202 210 185
13.0002 277.073 -94.8075 0 0 1 189 196 138
25.6108 272.438 -94.8279 0 0 1 196 199 197
21.8075 293.501 -86.2518 0 0 1 131 155 106
5.95973 301.659 -94.7731 0 0 1 206 206 173
25.6169 276.329 -94.767 0 0 1 222 223 221
15.3164 276.254 -94.8445 0 0 1 192 200 136
26.2247 295.305 -85.6343 0 0 1 141 154 123
24.6282 294.116 -87.1704 0 0 1 146 162 126
14.2599 275.98 -94.8186 0 0 1 186 193 129
12.7582 302.247 -88.6542 0 0 1 113 129 109
18.1711 281.602 -94.8114 0 0 1 196 199 166
24.0939 300.021 -87.6289 0 0 1 60 71 47
29.8825 297.667 -92.2119 0 0 1 89 89 73
30.6846 302.631 -90.1253 0 0 1 51 83 57
25.4339 299.878 -87.5528 0 0 1 41 53 48
30.162 287.121 -94.586 0 0 1 160 167 134
25.7901 272.025 -94.8088 0 0 1 204 208 205
16.1626 279.974 -94.7617 0 0 1 186 196 126
5.10011 297.395 -94.7717 0 0 1 177 189 139
24.382 271.327 -94.8022 0 0 1 193 197 196
14.7434 296.066 -94.6761 0 0 1 186 194 143
19.2215 294.108 -90.1556 0 0 1 73 86 53
27.8553 295.47 -90.9315 0 0 1 121 135 116
19.803 288.833 -94.6212 0 0 1 218 218 218
19.0696 278.348 -94.7848 0 0 1 186 200 125
20.2907 298.59 -85.3314 0 0 1 72 88 57
28.8169 299.323 -94.5449 0 0 1 91 92 74
30.3716 273.236 -94.7104 0 0 1 208 208 207
30.4487 301.25 -89.374 0 0 1 27 46 29
23.2603 298.808 -85.3053 0 0 1 40 59 34
30.7061 294.049 -87.8442 0 0 1 129 152 116
22.2789 293.336 -86.7841 0 0 1 65 77 45
15.0184 294.267 -94.6361 0 0 1 185 190 144
5.18827 296.132 -94.562 0 0 1 155 163 108
21.6747 281.202 -94.8063 0 0 1 222 225 224
27.1065 292.413 -90.5009 0 0 1 160 166 156
7.12516 296.409 -94.7025 0 0 1 154 166 110
13.5549 271.918 -94.7447 0 0 1 181 185 142
9.29184 293.037 -94.64 0 0 1 172 184 127
31.008 290.843 -86.5495 0 0 1 180 186 171
6.34118 296.497 -94.5705 0 0 1 157 172 107
27.6439 292.227 -90.9082 0 0 1 163 182 177
15.7783 279.015 -94.7628 0 0 1 186 197 130
31.493 288.94 -90.2844 0 0 1 135 159 131
9.55844 297.951 -94.7287 0 0 1 165 183 127
25.7748 290.954 -88.4836 0 0 1 144 152 107
25.5762 292.719 -87.4404 0 0 1 175 177 140
18.5057 270.677 -94.7085 0 0 1 177 181 181
15.7333 295.418 -94.5625 0 0 1 189 192 148
5.20978 298.564 -94.7357 0 0 1 178 190 136
29.7155 300.253 -88.7367 0 0 1 114 121 101
29.214 289.127 -94.5411 0 0 1 191 194 160
20.7239 300.78 -85.5556 0 0 1 47 65 58
27.7538 269.559 -94.8112 0 0 1 200 204 202
11.3919 280.451 -94.759 0 0 1 185 194 130
7.52479 300.069 -94.8241 0 0 1 183 190 142
20.2114 295.592 -85.788 0 0 1 68 87 51
29.6614 296.121 -91.9092 0 0 1 119 131 110
13.6822 280.529 -94.7624 0 0 1 187 192 129
6.59143 292.511 -94.483 0 0 1 156 169 108
30.7092 300.374 -88.5119 0 0 1 47 79 54
27.76 294.186 -92.0355 0 0 1 81 88 81
20.02 280.778 -94.8617 0 0 1 214 235 223
14.621 301.269 -87.6229 0 0 1 126 154 119
17.204 300.93 -85.5256 0 0 1 69 87 53
21.9944 269.252 -94.7559 0 0 1 184 191 189
15.735 298.164 -88.7133 0 0 1 139 167 124
24.8266 302.903 -88.237 0 0 1 56 79 49
30.775 290.147 -89.8558 0 0 1 128 131 120
15.9913 296.686 -94.751 0 0 1 189 189 151
12.0601 303.59 -87.3216 0 0 1 147 175 105
6.02638 270.07 -94.7635 0 0 1 188 192 191
11.2068 303.154 -87.7969 0 0 1 146 171 111
28.8703 297.092 -89.5147 0 0 1 126 130 109
6.05276 290.174 -94.6305 0 0 1 202 203 203
18.8563 276.343 -94.8055 0 0 1 175 186 114
24.936 270.803 -94.8222 0 0 1 193 197 196
5.65803 296.126 -94.5534 0 0 1 152 163 110
19.4516 287.248 -94.7391 0 0 1 227 230 230
14.752 294.142 -94.6608 0 0 1 190 193 146
30.439 298.46 -92.0214 0 0 1 61 61 48
17.2108 296.513 -87.9096 0 0 1 124 144 114
21.5652 277.902 -94.8228 0 0 1 205 206 154
5.7294 295.14 -94.5534 0 0 1 154 161 104
16.7687 273.809 -94.9033 0 0 1 171 185 128
20.0446 290.019 -94.6395 0 0 1 193 193 188
7.32505 294.052 -94.6132 0 0 1 154 169 115
21.7946 298.572 -85.3294 0 0 1 41 51 34
13.5952 277.533 -94.7959 0 0 1 198 205 149
6.32586 298.96 -94.7424 0 0 1 171 183 122
13.6101 269.484 -94.7372 0 0 1 169 174 174
13.5254 296.495 -94.6156 0 0 1 175 176 129
22.965 271.858 -94.8039 0 0 1 182 186 183
30.0699 301.68 -89.6218 0 0 1 38 62 40
19.6324 279.699 -94.9411 0 0 1 174 175 116
27.5668 298.501 -87.3916 0 0 1 133 136 115
30.99 289.071 -88.7381 0 0 1 167 193 177
13.3383 279.668 -94.8381 0 0 1 191 200 138
20.5265 292.619 -88.2634 0 0 1 129 154 103
18.0219 292.136 -94.5815 0 0 1 184 185 184
8.22945 289.973 -94.5898 0 0 1 207 207 207
20.7082 279.196 -94.7684 0 0 1 204 206 152
21.6696 298.507 -85.2162 0 0 1 39 58 38
23.4681 294.896 -86.2156 0 0 1 123 137 104
15.8543 299.646 -86.7611 0 0 1 145 175 105
25.9372 293.238 -87.2763 0 0 1 183 183 140
15.9053 269.755 -94.7946 0 0 1 176 182 181
31.4741 283.408 -94.6391 0 0 1 219 219 201
25.3683 270.125 -94.8546 0 0 1 207 212 211
30.2564 273.158 -94.7933 0 0 1 208 208 207
5.81124 290.075 -94.5908 0 0 1 200 200 200
30.373 288.978 -88.1633 0 0 1 171 182 171
27.7943 271.975 -94.7976 0 0 1 199 203 202
22.9641 272.45 -94.7566 0 0 1 192 195 191
8.78258 273.689 -94.6996 0 0 1 156 163 112
27.3171 286.346 -94.6859 0 0 1 205 205 203
14.3498 300.801 -88.0927 0 0 1 173 201 140
26.7288 296.785 -86.4544 0 0 1 131 136 103
18.599 298.176 -85.8444 0 0 1 147 172 149
26.883 297.006 -86.7357 0 0 1 144 147 114
7.23961 300.352 -94.8158 0 0 1 172 187 139
24.1182 270.864 -94.8097 0 0 1 192 198 197
19.7657 301.209 -86.5712 0 0 1 32 39 33
29.4197 299.046 -94.5196 0 0 1 31 39 31
6.97685 300.398 -94.736 0 0 1 178 192 143
18.1818 270.239 -94.7625 0 0 1 176 181 179
16.072 294.774 -94.568 0 0 1 176 180 136
20.9294 288.891 -94.6689 0 0 1 201 201 199
19.9238 290.027 -94.6874 0 0 1 193 193 188
28.9229 272.745 -94.7597 0 0 1 198 202 201
19.6441 269.474 -94.8557 0 0 1 181 189 188
7.29284 280.281 -94.8994 0 0 1 176 179 178
30.9056 270.161 -94.8191 0 0 1 188 190 190
23.6556 293.73 -86.7285 0 0 1 125 151 111
6.72309 291.773 -94.6367 0 0 1 195 197 164
31.5331 302.156 -89.9583 0 0 1 10 20 14
22.2711 299.388 -84.8186 0 0 1 146 165 120
16.0012 283.938 -94.8502 0 0 1 225 227 227
16.2686 295.203 -94.643 0 0 1 179 189 133
9.47389 298.339 -94.6022 0 0 1 164 172 120
6.34213 275.346 -94.7367 0 0 1 196 197 186
26.9122 292.008 -88.632 0 0 1 167 173 156
5.37737 303.241 -94.7067 0 0 1 199 201 166
18.6176 294.36 -94.7242 0 0 1 158 161 118
22.6102 275.016 -94.8432 0 0 1 183 183 131
6.96861 290.855 -94.5847 0 0 1 201 202 202
20.7372 297.088 -85.2816 0 0 1 66 85 44
23.7878 277.602 -94.8007 0 0 1 236 236 236
7.97866 297.856 -94.7318 0 0 1 163 177 121
11.1885 271.519 -94.7338 0 0 1 167 170 129
20.3664 299.528 -83.9591 0 0 1 122 139 114
29.544 269.356 -94.867 0 0 1 196 197 195
10.3911 299.029 -94.7295 0 0 1 198 199 150
23.3875 272.821 -94.8039 0 0 1 197 199 194
7.75939 292.779 -94.608 0 0 1 157 172 114
13.4166 281.125 -94.7596 0 0 1 177 187 117
22.84 289.146 -94.6394 0 0 1 162 163 156
6.71718 291.62 -94.669 0 0 1 217 221 206
28.8778 299.136 -88.7569 0 0 1 83 87 70
9.89637 273.056 -94.7684 0 0 1 176 184 134
26.8603 294.422 -89.1707 0 0 1 165 177 155
7.69715 274.375 -94.7117 0 0 1 165 174 122
22.7893 288.165 -94.6666 0 0 1 216 216 215
10.3353 299.659 -94.7067 0 0 1 191 195 145
7.31242 300.309 -94.7295 0 0 1 176 188 140
8.44274 293.81 -94.6354 0 0 1 159 170 117
22.9097 299.818 -86.0781 0 0 1 30 42 36
21.6952 271.117 -94.7876 0 0 1 178 183 183
24.1621 290.613 -90.8269 0 0 1 171 188 150
25.3679 272.989 -94.7999 0 0 1 177 182 182
18.1718 302.821 -86.6644 0 0 1 54 84 48
25.9168 287.575 -94.7313 0 0 1 197 197 195
27.7441 272.013 -94.7532 0 0 1 199 203 202
28.0742 292.269 -90.2583 0 0 1 102 107 103
6.9413 290.669 -94.6649 0 0 1 202 202 202
6.981 294.411 -94.5199 0 0 1 175 185 142
23.121 295.025 -85.9533 0 0 1 65 82 55
25.7294 303.131 -87.258 0 0 1 199 215 173
6.13222 298.757 -94.6182 0 0 1 160 178 115
7.59101 297.774 -94.7303 0 0 1 162 176 118
19.173 295.489 -94.7203 0 0 1 139 171 139
16.2891 280.645 -94.7801 0 0 1 188 195 133
23.8403 299.056 -86.5858 0 0 1 83 96 69
23.278 300.9 -88.0118 0 0 1 51 57 48
5.14824 298.678 -94.6279 0 0 1 178 183 136
9.58394 303.618 -88.8666 0 0 1 171 195 143
18.7281 300.821 -86.0674 0 0 1 72 88 64
16.8205 294.818 -94.6422 0 0 1 177 185 133
19.3782 280.828 -94.7859 0 0 1 192 195 141
31.1343 293.034 -87.3187 0 0 1 152 172 140
29.4572 292.328 -90.9222 0 0 1 128 128 113
16.7973 295.973 -94.6088 0 0 1 182 189 144
24.9006 271.509 -94.7855 0 0 1 200 205 202
7.94739 297.709 -94.624 0 0 1 168 180 125
28.2518 292.963 -91.8797 0 0 1 140 148 131
30.8347 301.701 -88.4994 0 0 1 29 53 38
8.95956 292.648 -94.645 0 0 1 195 195 156
9.71316 293.532 -94.5397 0 0 1 172 180 126
31.0687 286.366 -94.7105 0 0 1 171 171 143
14.1099 302.704 -87.3308 0 0 1 126 136 112
27.9738 272.796 -94.7693 0 0 1 197 200 199
10.1627 303.548 -88.8316 0 0 1 118 141 105
7.61755 304.155 -89.3813 0 0 1 154 175 117
10.9697 280.051 -94.7671 0 0 1 184 190 123
29.7789 297.351 -92.2284 0 0 1 87 92 75
19.4126 280.505 -94.7778 0 0 1 193 197 138
6.41602 299.871 -94.684 0 0 1 157 175 110
19.1733 276.862 -94.7948 0 0 1 179 192 120
11.2941 301.131 -94.7536 0 0 1 181 182 143
29.8398 294.097 -92.2062 0 0 1 77 86 63
26.1235 299.682 -87.6997 0 0 1 94 98 72
4.95949 269.575 -94.8068 0 0 1 189 195 195
17.3275 275.488 -94.8293 0 0 1 170 180 121
18.4268 279.722 -94.8645 0 0 1 199 206 149
30.5847 268.985 -94.7988 0 0 1 194 197 196
17.2358 301.697 -86.0017 0 0 1 44 63 42
7.58626 299.598 -94.7618 0 0 1 181 191 142
27.4396 300.485 -88.6872 0 0 1 89 90 80
14.4899 295.815 -94.6839 0 0 1 182 189 140
14.1613 303.326 -86.5711 0 0 1 73 88 68
23.8717 275.511 -94.79 0 0 1 173 173 120
31.447 294.021 -86.9029 0 0 1 149 165 137
19.9352 271.917 -94.7457 0 0 1 172 176 174
15.3716 270.441 -94.7492 0 0 1 172 175 173
18.0066 298.742 -85.2923 0 0 1 130 155 133
14.8002 299.423 -89.2121 0 0 1 109 132 104
14.7287 272.65 -94.8878 0 0 1 169 171 123
14.6109 268.943 -94.7257 0 0 1 179 183 182
14.5432 301.203 -87.4926 0 0 1 158 182 150
21.2072 301.833 -86.7907 0 0 1 80 89 67
4.73013 297.919 -94.6639 0 0 1 196 200 162
28.9125 269.982 -94.7391 0 0 1 203 204 203
13.8968 300.252 -88.588 0 0 1 130 157 128
16.2037 278.487 -94.7993 0 0 1 192 207 137
18.5594 277.477 -94.8233 0 0 1 188 202 133
20.5404 297.907 -85.4827 0 0 1 66 81 38
4.92911 293.025 -94.5224 0 0 1 168 181 118
30.6354 268.891 -94.7763 0 0 1 192 196 195
21.5235 275.733 -94.804 0 0 1 172 178 111
5.98547 296.817 -94.7046 0 0 1 161 168 113
25.6449 291.687 -87.7865 0 0 1 156 164 127
28.7714 300.519 -88.8207 0 0 1 126 147 120
17.732 269.584 -94.7363 0 0 1 177 181 181
31.3271 292.689 -87.2834 0 0 1 161 167 153
23.483 299.199 -85.6733 0 0 1 38 57 37
11.3314 272.213 -94.7333 0 0 1 139 144 103
17.5283 296.949 -94.7068 0 0 1 170 173 146
18.5853 297.304 -86.0757 0 0 1 101 122 103
19.5916 298.05 -86.0189 0 0 1 71 85 55
24.2851 286.499 -94.7694 0 0 1 220 226 224
15.1453 269.677 -94.8564 0 0 1 176 183 182
25.3608 270.853 -94.9501 0 0 1 195 199 197
6.87004 298.711 -94.6292 0 0 1 155 173 107
24.1758 299.555 -87.4947 0 0 1 23 40 30
22.1607 269.355 -94.7713 0 0 1 184 191 190
30.3535 294.788 -85.5613 0 0 1 132 159 105
14.6431 274.921 -94.8125 0 0 1 152 169 104
29.6615 292.403 -85.1448 0 0 1 167 180 146
7.38332 295.524 -94.5843 0 0 1 170 182 134
21.4996 278.495 -94.8507 0 0 1 201 204 151
13.8175 272.025 -94.7836 0 0 1 178 182 138
28.9639 295.134 -92.2138 0 0 1 82 92 83
10.1367 299.08 -94.5872 0 0 1 194 199 148
24.8639 299.678 -87.4528 0 0 1 38 54 41
21.8493 298.352 -85.3577 0 0 1 68 81 55
16.5381 277.904 -94.7735 0 0 1 188 201 127
30.931 301.641 -89.7084 0 0 1 0 0 0
25.7042 299.876 -87.3172 0 0 1 39 55 44
25.8283 273.73 -94.8258 0 0 1 213 215 214
6.88383 296.27 -94.6157 0 0 1 152 167 105
31.0226 299.1 -93.5885 0 0 1 71 75 64
30.6931 293.167 -87.0621 0 0 1 157 184 139
27.3225 300.1 -88.3575 0 0 1 69 74 62
9.20054 293.88 -94.5154 0 0 1 156 164 106
9.33459 272.211 -94.7646 0 0 1 156 159 108
26.352 292.719 -87.5134 0 0 1 188 196 155
12.3853 277.548 -94.772 0 0 1 201 209 153
8.62802 295.976 -94.6641 0 0 1 164 175 121
24.0751 285 -94.9671 0 0 1 217 218 218
15.2795 278.871 -94.801 0 0 1 187 197 131
11.2289 302.941 -88.0776 0 0 1 163 189 133
30.2549 269.881 -94.7663 0 0 1 187 191 190
10.429 297.737 -94.7908 0 0 1 175 175 130
24.3862 291.156 -90.4509 0 0 1 140 161 104
29.9203 292.591 -85.4895 0 0 1 124 139 105
24.5996 270.665 -94.8217 0 0 1 197 202 201
25.4861 295.702 -86.0457 0 0 1 153 164 121
5.44069 300.268 -94.8107 0 0 1 170 177 128
10.0941 303.351 -88.9941 0 0 1 163 176 133
6.80802 304.195 -90.4647 0 0 1 149 165 134
17.6147 280.013 -94.7579 0 0 1 185 197 130
7.69456 298.497 -94.6293 0 0 1 163 179 124
22.3214 271.477 -94.8033 0 0 1 186 189 186
5.64674 295.679 -94.567 0 0 1 161 172 118
28.9442 301.712 -89.2961 0 0 1 57 66 55
21.1973 270.091 -94.89 0 0 1 180 181 180
6.01482 296.719 -94.6196 0 0 1 154 162 105
30.2767 297.504 -92.2024 0 0 1 53 66 50
28.1626 284.671 -94.6644 0 0 1 218 221 220
11.0475 297.443 -94.7281 0 0 1 172 174 126
30.3028 300.518 -89.8172 0 0 1 51 73 47
29.9315 294.052 -92.2368 0 0 1 72 81 63
5.54357 274.136 -94.7895 0 0 1 224 229 229
21.099 297.392 -84.1565 0 0 1 75 93 51
17.5928 300.53 -85.3486 0 0 1 138 158 106
18.3357 299.673 -85.533 0 0 1 48 68 56
11.7112 274.818 -94.8066 0 0 1 159 169 119
19.5258 280.129 -94.8395 0 0 1 192 195 133
21.2946 295.825 -84.6778 0 0 1 71 91 52
15.706 299.568 -87.2034 0 0 1 113 140 102
22.5992 299.254 -85.8304 0 0 1 153 176 144
28.2106 296.659 -89.9658 0 0 1 122 133 114
29.6059 293.558 -95.2676 0 0 1 83 88 76
10.817 272.487 -94.7887 0 0 1 152 157 111
30.8029 272.702 -94.8055 0 0 1 207 207 206
25.1317 302.007 -88.0489 0 0 1 68 82 62
15.6529 275.929 -94.8303 0 0 1 189 198 137
27.2534 303.261 -87.7456 0 0 1 171 193 145
22.3883 300.008 -86.6717 0 0 1 67 86 66
29.6345 292.955 -93.9398 0 0 1 0 0 0
29.2223 285.847 -94.6384 0 0 1 204 206 199
13.4169 278.233 -94.7919 0 0 1 197 206 149
30.229 292.434 -85.429 0 0 1 173 193 147
20.1519 303.196 -86.9594 0 0 1 37 41 32
27.2684 291.578 -90.2682 0 0 1 156 164 153
24.5248 289.386 -94.708 0 0 1 160 174 141
7.47533 274.621 -94.7107 0 0 1 173 176 130
22.5752 274.52 -94.8073 0 0 1 171 172 114
22.7804 279.559 -95.0764 0 0 1 0 0 0
23.8855 288.178 -94.6633 0 0 1 191 195 183
20.018 301.792 -86.383 0 0 1 45 50 43
23.0012 290.532 -94.6019 0 0 1 172 172 163
30.4857 286.801 -94.6963 0 0 1 170 178 136
23.0548 279.618 -94.7956 0 0 1 226 227 226
27.7443 300.64 -90.1308 0 0 1 0 0 0
9.03351 278.131 -94.7677 0 0 1 183 187 120
25.9246 269.083 -94.8379 0 0 1 208 212 212
21.9503 300.771 -87.396 0 0 1 23 35 35
11.8795 300.815 -94.6223 0 0 1 178 178 126
14.5339 300.861 -88.0235 0 0 1 147 171 132
29.8176 283.064 -94.7464 0 0 1 220 222 221
13.9538 302.865 -86.7078 0 0 1 61 76 50
12.4401 275.519 -94.8355 0 0 1 181 189 136
30.5459 291.083 -90.965 0 0 1 137 164 122
12.2714 280.619 -94.7129 0 0 1 175 185 113
22.6872 268.992 -94.8868 0 0 1 187 191 191
30.1616 301.539 -90.4046 0 0 1 0 0 0
21.1617 275.937 -94.8437 0 0 1 195 201 141
7.2957 275.435 -94.6747 0 0 1 184 184 138
27.3728 273.16 -94.9238 0 0 1 205 208 207
30.897 300.588 -88.2884 0 0 1 47 70 50
4.73965 289.545 -94.6925 0 0 1 201 201 200
13.2345 280.486 -94.7471 0 0 1 185 191 130
27.0017 292.176 -90.5942 0 0 1 151 162 152
30.4176 270.392 -94.7273 0 0 1 187 190 189
12.9783 271.375 -94.7904 0 0 1 161 163 121
17.7264 294.255 -94.7948 0 0 1 166 174 119
23.7639 301.532 -88.1409 0 0 1 58 61 53
24.8291 272.576 -94.8022 0 0 1 188 191 187
10.9896 296.817 -94.6646 0 0 1 174 174 131
24.679 292.967 -87.7304 0 0 1 127 131 101
24.104 299.77 -87.6274 0 0 1 39 56 41
27.7389 280.107 -94.9303 0 0 1 167 172 171
20.9023 287.61 -94.6305 0 0 1 220 223 223
28.7584 302.177 -92.5257 0 0 1 0 0 0
26.3647 299.383 -87.6591 0 0 1 85 95 76
14.2168 275.682 -94.8157 0 0 1 165 171 104
14.5612 275.031 -94.8677 0 0 1 154 169 101
23.4556 274.674 -94.8127 0 0 1 174 175 118
20.7069 280.647 -94.7942 0 0 1 251 252 252
24.1359 270.93 -94.8232 0 0 1 192 198 197
16.0771 300.828 -86.5212 0 0 1 116 143 100
29.6978 269.169 -94.8345 0 0 1 196 198 195
15.0861 279.96 -94.8138 0 0 1 188 197 125
24.5976 296.421 -85.8958 0 0 1 88 96 77
30.6489 301.541 -89.3964 0 0 1 29 43 30
25.5252 300.238 -87.9219 0 0 1 34 42 31
21.7081 271.983 -94.7834 0 0 1 183 187 185
18.0707 278.04 -94.8424 0 0 1 192 207 145
24.3358 302.059 -88.0205 0 0 1 20 24 21
5.84597 293.876 -94.5741 0 0 1 170 174 127
21.6166 296.075 -84.667 0 0 1 66 88 50
15.6677 275.353 -94.8156 0 0 1 155 169 104
12.7144 272.904 -94.7822 0 0 1 174 174 129
6.32394 297.609 -94.6531 0 0 1 175 184 125
27.3257 286.256 -94.743 0 0 1 203 203 203
6.02839 289.767 -94.5986 0 0 1 203 203 203
25.4933 297.999 -86.7357 0 0 1 69 79 67
27.5423 300.267 -88.8489 0 0 1 89 90 80
8.16444 298.019 -94.7128 0 0 1 162 174 119
22.4662 302.552 -87.5623 0 0 1 47 73 39
26.0685 295.475 -86.0404 0 0 1 119 128 108
20.5915 298.955 -84.3664 0 0 1 151 172 121
15.5872 294.425 -94.7047 0 0 1 174 183 135
5.28789 295.069 -94.6583 0 0 1 160 164 111
22.0184 294.857 -85.0354 0 0 1 132 158 111
15.0683 276.297 -94.7857 0 0 1 190 198 133
22.2216 280.014 -94.8525 0 0 1 231 234 233
5.29153 295.71 -94.6519 0 0 1 160 171 111
23.6267 277.912 -94.8172 -0.214875 0.0878975 0.972678 236 237 233
19.9809 300.886 -86.4285 0 0 1 31 43 40
21.1902 290.842 -94.6216 0 0 1 160 173 150
5.92555 304.121 -88.9314 0 0 1 180 200 158
29.514 295.335 -89.5604 0 0 1 95 98 87
12.2977 281.218 -94.7729 0 0 1 173 183 126
13.7808 301.173 -87.9201 0 0 1 107 131 105
21.1711 303.151 -87.0551 0 0 1 44 48 36
30.4917 300.9 -88.5773 0 0 1 51 81 59
25.3706 294.505 -86.7011 0 0 1 149 153 111
31.449 298.519 -87.202 0 0 1 62 77 57
25.6928 271.015 -94.8897 0 0 1 203 207 205
24.627 286.584 -94.7455 0 0 1 222 224 222
14.3275 295.44 -94.7171 0 0 1 175 182 129
21.8891 296.516 -85.0297 0 0 1 77 88 55
19.4428 279.494 -94.8788 0 0 1 202 206 149
8.25924 295.959 -94.7009 0 0 1 167 175 125
27.9637 271.451 -94.8819 0 0 1 205 207 205
24.7112 286.161 -94.6993 0 0 1 225 226 226
23.794 302.405 -89.0106 0 0 1 45 52 38
21.2159 277.577 -94.7874 0 0 1 206 206 162
31.4774 279.666 -94.931 0 0 1 0 0 0
5.62428 299.226 -94.6685 0 0 1 144 167 106
17.3374 279.708 -94.749 0 0 1 186 197 131
21.5288 289.859 -94.6542 0 0 1 176 191 173
22.7926 301.866 -87.8971 0 0 1 65 78 61
18.6115 300.012 -85.4984 0 0 1 36 51 40
19.5661 269.314 -94.7585 0 0 1 182 188 188
20.6581 300.861 -84.774 0 0 1 42 61 54
22.1774 298.113 -84.87 0 0 1 56 75 47
31.3663 301.704 -87.9381 0 0 1 44 71 50
5.38567 291.934 -94.6019 0 0 1 170 185 119
7.64211 278.492 -94.737 0 0 1 241 243 242
14.6824 301.844 -86.2105 0 0 1 141 168 103
20.2461 277.758 -94.8115 0 0 1 191 207 141
20.2843 299.556 -84.3047 0 0 1 113 138 103
29.8296 269.596 -94.7843 0 0 1 196 198 197
10.9198 272.633 -94.7765 0 0 1 159 162 115
16.118 281.814 -94.7955 0 0 1 183 187 142
5.39977 305.071 -94.3173 0 0 1 155 189 184
6.04617 304.055 -89.5467 0 0 1 131 160 139
14.1877 295.295 -94.6359 0 0 1 173 180 126
28.0273 290.067 -94.4602 0 0 1 196 217 211
31.3423 301.112 -88.7655 0 0 1 20 34 20
29.1209 297.499 -91.4442 0 0 1 116 124 109
16.0415 276.332 -94.7881 0 0 1 183 194 126
20.9704 301.379 -86.8361 0 0 1 27 31 27
25.8777 270.126 -94.7698 0 0 1 211 216 213
26.9683 297.034 -86.7903 0 0 1 146 147 114
14.0876 290.543 -94.6873 0 0 1 204 204 204
8.14893 300.46 -94.8276 0 0 1 174 185 130
17.3675 274.182 -94.8804 0 0 1 163 178 114
30.0718 289.119 -88.4391 0 0 1 140 147 140
18.2526 279.366 -94.7559 0 0 1 196 207 146
26.1251 269.323 -94.8493 0 0 1 209 214 211
6.11862 299.974 -94.8093 0 0 1 156 179 114
30.6586 289.973 -89.5389 0 0 1 151 162 149
31.4514 298.578 -86.288 0 0 1 133 133 105
28.1956 275.09 -94.7344 0 0 1 210 210 208
12.7106 294.935 -94.5171 0 0 1 182 189 136
30.3289 296.762 -91.9786 0 0 1 58 71 60
25.0676 287.761 -94.6549 0 0 1 204 207 200
26.3728 287.508 -94.6438 0 0 1 198 199 195
26.9773 276.386 -94.7705 0 0 1 217 220 220
26.3546 293.616 -91.3152 0 0 1 162 171 157
24.8147 302.784 -88.8065 0 0 1 26 31 23
30.8842 286.667 -94.6251 0.193544 0.0921672 0.976753 175 177 134
15.1286 299.938 -87.9822 0 0 1 76 93 65
24.6011 299.04 -87.3321 0 0 1 32 49 36
22.7903 290.56 -94.694 0 0 1 164 166 153
30.0889 292.926 -85.4354 0 0 1 160 169 132
24.4348 278.271 -94.9074 0 0 1 221 223 223
29.7464 293.021 -91.8981 0 0 1 89 93 79
19.6882 270.302 -94.6506 0 0 1 179 185 184
5.73695 304.251 -89.1566 0 0 1 131 169 112
25.7666 292.003 -88.1849 0 0 1 164 167 125
5.8295 303.986 -89.3566 0 0 1 160 166 128
26.4335 275.012 -94.8596 0 0 1 197 200 199
27.3294 286.94 -94.6436 0 0 1 200 200 196
11.0937 298.499 -94.7482 0 0 1 184 187 138
4.34234 288.669 -94.7049 0 0 1 200 200 200
17.3593 279.589 -94.7665 0 0 1 185 196 129
21.4762 299.436 -85.6728 0 0 1 64 71 56
25.9808 298.711 -87.6047 0 0 1 62 68 55
29.0678 270.649 -94.7932 0 0 1 198 200 197
21.3723 295.22 -84.8005 0 0 1 82 98 52
31.5743 282.612 -94.8607 0 0 1 208 209 207
25.2705 275.661 -94.8848 0 0 1 215 217 213
16.787 298.732 -86.7365 0 0 1 114 143 102
17.6341 281.719 -94.8314 0 0 1 189 189 152
24.9639 276.415 -94.8628 0 0 1 233 234 231
19.3841 302.411 -86.7445 0 0 1 49 54 42
20.4242 302.053 -86.6003 0 0 1 87 90 70
19.4264 270.043 -94.7862 0 0 1 180 186 185
20.1111 270.725 -94.8866 0 0 1 190 191 187
25.521 299.733 -87.1964 0 0 1 58 81 65
15.477 295.256 -94.7139 0 0 1 188 194 148
20.1479 302.826 -86.7919 0 0 1 49 54 42
26.4093 269.654 -94.8782 0 0 1 212 216 213
30.574 300.362 -89.608 0 0 1 0 0 0
27.3082 301.624 -89.9998 0 0 1 45 58 49
14.3139 271.69 -94.8232 0 0 1 190 190 151
6.16365 270.762 -94.6878 0 0 1 216 219 217
23.1467 278.712 -94.8562 0 0 1 232 232 229
28.1704 299.708 -88.3433 0 0 1 75 80 62
19.9245 286.844 -94.6743 0 0 1 224 226 226
24.9664 297.86 -86.5116 0 0 1 0 0 0
8.8764 277.442 -94.7174 0 0 1 180 184 117
27.812 284.074 -94.6687 0 0 1 223 225 225
28.8035 271.302 -94.8381 0 0 1 194 197 196
6.21391 295.964 -94.6574 0 0 1 164 174 121
19.6085 277.611 -94.8054 -0.233543 0.11993 0.964922 189 201 135
7.13833 294.775 -94.6009 0 0 1 157 177 120
12.7218 272.323 -94.7911 0.0622865 -0.272685 0.960085 169 174 131
24.602 269.661 -94.8215 0 0 1 197 202 202
9.15165 297.891 -94.6202 0 0 1 160 181 126
6.48081 300.299 -94.7574 0 0 1 170 186 129
24.6765 292.319 -87.5675 0 0 1 160 173 129
23.1962 271.545 -94.8649 0 0 1 180 185 184
21.7296 272.265 -94.889 0 0 1 180 183 181
30.5037 293.089 -91.8045 0 0 1 67 78 64
12.3273 276.89 -94.7919 0 0 1 195 201 141
24.9951 298.536 -86.9866 0 0 1 59 66 56
11.833 271.723 -94.7432 0 0 1 167 171 126
15.8264 300.386 -86.9415 0 0 1 76 96 58
30.6717 289.521 -88.1869 0 0 1 163 167 162
17.5551 299.596 -86.0951 0 0 1 48 67 50
22.3617 286.056 -94.6642 0 0 1 223 226 225
11.525 275.119 -94.8429 0 0 1 159 165 106
29.8325 288.796 -88.6556 0 0 1 152 163 156
5.93646 288.995 -94.6839 0 0 1 208 208 208
26.7037 286.749 -94.6624 0 0 1 204 205 203
5.00893 294.733 -94.553 0 0 1 158 162 107
5.97252 271.584 -94.807 0 0 1 212 214 210
19.6122 299.085 -85.2852 0 0 1 64 76 62
9.4201 284.852 -94.9649 0 0 1 0 0 0
14.226 279.451 -94.8077 0 0 1 187 196 126
26.3021 269.553 -94.7516 0 0 1 212 216 213
29.6353 270.994 -94.7677 0 0 1 192 195 194
27.3464 290.942 -90.2967 0 0 1 155 158 144
8.29736 294.159 -94.6069 0 0 1 162 178 122
22.9125 268.977 -94.7652 0 0 1 188 192 192
10.1276 295.311 -94.5326 0 0 1 184 187 146
28.6555 295.189 -91.899 0 0 1 76 80 73
27.7942 271.591 -94.7809 0 0 1 209 210 209
19.0887 273.794 -94.8313 0 0 1 176 181 123
30.368 280.909 -94.6932 0 0 1 217 219 218
15.1433 270.039 -94.7264 0 0 1 172 177 175
30.4421 303.797 -87.6699 0 0 1 119 156 106
15.7105 298.848 -87.9632 0 0 1 116 143 100
20.6387 294.939 -85.2094 0 0 1 70 87 49
10.4806 296.778 -94.6741 0 0 1 174 184 136
29.0285 273.008 -94.8991 0 0 1 196 200 199
6.7462 301.614 -94.8496 0 0 1 203 204 165
12.3536 305.615 -94.4434 0 0 1 56 60 43
30.9193 289.349 -88.3939 0 0 1 140 147 124
17.5076 291.25 -94.6481 0 0 1 199 199 198
4.87663 298.628 -94.7964 0 0 1 175 184 132
21.714 302.907 -87.325 0 0 1 72 80 60
25.0115 297.973 -86.5694 0 0 1 71 84 71
19.4562 288.285 -94.8227 0 0 1 220 223 222
24.9811 277.02 -94.8223 0 0 1 225 225 224
21.444 276.432 -94.8367 0 0 1 187 198 128
22.514 303.797 -88.0454 0 0 1 126 148 101
31.234 293.319 -87.1962 0 0 1 138 151 120
27.8557 275.153 -94.7394 0 0 1 215 215 213
11.9419 303.143 -87.9758 0 0 1 146 164 112
18.2078 273.645 -94.8619 0 0 1 184 186 135
13.9896 292.285 -94.61 0 0 1 194 194 193
8.69841 304.14 -89.0443 0 0 1 137 172 106
31.3928 303.031 -91.0372 0 0 1 20 35 24
22.974 272.606 -94.7475 0 0 1 194 197 192
24.3967 302.366 -89.1361 0 0 1 36 43 28
30.2714 302.621 -89.6396 0 0 1 28 53 30
21.4446 300.979 -85.8153 0 0 1 64 86 65
10.1751 303.52 -87.8046 0 0 1 158 178 122
28.5255 298.262 -90.5832 0 0 1 96 96 83
26.8064 270.077 -94.9068 0 0 1 198 201 200
28.4241 269.589 -94.7187 0 0 1 204 205 203
27.7254 287.2 -94.5994 0 0 1 202 204 199
18.7869 299.484 -85.2972 0 0 1 117 131 107
27.3083 291.923 -90.3959 0 0 1 169 174 161
27.6505 287.454 -94.6712 0 0 1 193 197 188
15.4309 298.778 -88.5046 0 0 1 120 145 105
7.23523 275.182 -94.7805 0 0 1 178 178 133
23.2902 279.407 -94.8893 0 0 1 222 224 224
25.5183 301.333 -88.0337 0 0 1 147 164 124
21.2221 301.424 -86.1791 0 0 1 35 48 37
12.3528 280.37 -94.7769 0 0 1 179 191 118
4.43175 292.86 -94.6647 0 0 1 168 174 115
15.9447 277.009 -94.8176 0 0 1 184 192 125
15.5158 295.547 -94.7521 0 0 1 180 182 133
25.7989 302.314 -88.438 0 0 1 126 144 101
29.8229 284.891 -94.6855 0 0 1 210 210 207
13.5149 303.275 -86.7735 0 0 1 146 178 134
13.2349 272.035 -94.7723 0 0 1 179 184 142
26.0741 273.019 -94.8223 0 0 1 205 205 202
28.6108 300.355 -88.7664 0 0 1 117 133 106
24.3932 287.152 -94.7058 0 0 1 218 218 217
28.0411 301.664 -89.3989 0 0 1 66 67 57
19.2811 287.123 -94.6812 0 0 1 225 229 229
29.3561 298.695 -91.5851 0 0 1 51 62 52
13.9697 281.058 -94.8011 0 0 1 181 191 127
14.3298 296.133 -94.6676 0 0 1 185 191 142
6.22069 304.219 -89.1383 0 0 1 136 161 107
10.4641 280.221 -94.733 0 0 1 169 175 118
10.9692 274.933 -94.8366 0 0 1 160 164 107
4.45352 289.646 -94.7298 0 0 1 204 204 203
25.9261 286.538 -94.754 0 0 1 213 213 212
30.9003 300.345 -88.1104 0 0 1 47 79 54
6.21584 298.852 -94.7852 0 0 1 171 183 122
28.2705 283.362 -94.6674 0 0 1 224 227 227
27.1721 301.244 -89.1882 0 0 1 73 77 59
20.6938 270.381 -94.8644 0 0 1 190 190 186
31.4211 287.23 -94.5555 0 0 1 157 164 124
31.0277 281.62 -94.651 0 0 1 219 222 221
29.4228 302.093 -91.3032 0 0 1 51 84 52
17.0772 277.569 -94.7588 0 0 1 194 208 142
10.4734 278.438 -94.7742 0 0 1 183 190 126
27.573 285.7 -94.6756 0 0 1 212 212 212
13.9979 301.128 -87.7969 0 0 1 161 190 161
22.7541 293.998 -86.0408 0 0 1 76 96 60
29.3785 283.281 -94.7169 0 0 1 225 226 226
29.3816 289.31 -94.3704 0 0 1 168 229 215
24.1599 295.837 -86.3626 0 0 1 75 83 55
22.2828 287.935 -94.6849 0 0 1 217 219 217
31.4078 288.488 -90.6097 0 0 1 198 205 188
30.3631 281.885 -94.7094 0 0 1 221 223 222
18.2855 292.046 -94.6799 0 0 1 186 186 186
5.96746 294.533 -94.5393 0 0 1 163 178 128
27.0757 291.574 -90.0962 0 0 1 161 172 150
27.0043 296.35 -86.5997 0 0 1 0 0 0
23.217 290.727 -88.1856 0 0 1 164 192 126
21.9971 290.496 -94.667 0 0 1 146 146 139
19.0526 300.329 -85.1752 0 0 1 119 144 112
26.0129 286.147 -94.8082 0 0 1 215 217 216
28.4661 288.311 -94.7658 0 0 1 170 179 151
25.9273 300.654 -88.1394 0 0 1 93 98 83
27.6381 272.307 -94.8295 0 0 1 200 203 203
27.0661 286.666 -94.6837 0 0 1 204 204 201
24.1814 287.451 -94.694 0 0 1 215 216 213
24.3306 300.906 -87.6069 0 0 1 79 85 65
14.6445 297.015 -94.6395 0 0 1 186 193 144
17.1228 292.748 -94.7538 0 0 1 174 175 173
10.307 299.975 -94.6223 0 0 1 180 184 130
10.9143 279.28 -94.7566 0 0 1 184 189 124
24.2264 302.012 -88.1159 0 0 1 20 24 21
13.742 273.722 -94.842 0 0 1 146 160 106
31.4383 305.234 -93.0891 0 0 1 13 27 20
29.371 296.544 -91.3684 0 0 1 144 147 130
6.34269 293.506 -94.6253 0 0 1 168 176 123
29.0327 272.777 -94.7223 0 0 1 198 202 201
8.82094 296.53 -94.7591 0 0 1 184 189 149
18.8427 270.375 -94.759 0 0 1 177 182 182
28.2598 275.528 -94.8649 0 0 1 221 222 222
21.503 298.46 -84.918 0 0 1 38 51 28
18.6393 299.942 -85.4643 0 0 1 62 80 63
5.40415 296.559 -94.5895 0 0 1 171 172 127
20.4113 278.613 -94.7621 0 0 1 205 206 155
30.6039 300.824 -89.3216 0 0 1 43 71 44
25.9758 298.197 -87.5811 0 0 1 85 91 74
17.0495 294.981 -94.6775 0 0 1 175 182 132
23.3715 301.276 -88.1073 0 0 1 30 32 27
30.1115 294.989 -85.4078 0 0 1 128 152 104
25.2433 287.667 -94.6324 0 0 1 207 207 203
14.4147 275.554 -94.8707 0 0 1 166 172 108
25.0515 285.743 -94.564 0 0 1 224 226 225
10.0127 294.519 -94.5607 0 0 1 176 182 133
9.86615 299.966 -94.7327 0 0 1 192 196 150
19.0146 276.173 -94.8422 0 0 1 183 191 121
25.7615 297.269 -86.3261 0 0 1 146 148 106
30.1849 292.6 -85.5366 0 0 1 182 195 168
26.0739 275.202 -94.8856 0 0 1 200 204 201
13.9983 300.229 -88.6748 0 0 1 174 198 155
22.5196 299.627 -85.2206 0 0 1 118 138 121
13.8471 297.118 -94.6758 0 0 1 184 184 139
27.0275 275.352 -94.8322 0 0 1 209 209 206
23.1462 302.244 -88.2189 0 0 1 32 41 32
6.03576 270.585 -94.7177 0 0 1 199 201 200
7.76262 297.917 -94.6051 0 0 1 167 178 121
10.7948 302.978 -88.3247 0 0 1 163 177 120
22.6484 290.971 -94.6668 0 0 1 161 161 157
17.7537 295.021 -94.7232 0 0 1 175 182 132
6.44576 295.793 -94.5045 0 0 1 158 175 119
8.99706 292.979 -94.6917 0 0 1 178 182 134
17.8983 294.418 -94.5656 0 0 1 181 189 140
27.2005 273.312 -94.8129 0 0 1 205 208 207
28.0412 284.96 -94.7886 0 0 1 217 219 218
25.7692 294.711 -86.1994 0 0 1 156 167 129
28.2843 291.67 -90.1936 0 0 1 154 161 147
29.917 301.894 -90.7542 0 0 1 40 63 36
6.11184 293.484 -94.5599 0 0 1 161 172 115
29.302 272.718 -94.7746 0 0 1 198 201 200
5.11871 294.854 -94.6608 0 0 1 154 161 107
26.8996 291.086 -90.1663 0 0 1 170 177 154
31.1094 294.381 -85.865 0 0 1 126 138 114
27.4922 274.013 -94.7722 0 0 1 201 204 203
31.2826 302.283 -89.7547 0 0 1 33 49 30
30.6556 301.429 -89.4671 0 0 1 23 38 25
18.9819 281.71 -94.8144 0 0 1 253 253 252
14.416 300.262 -88.7723 0 0 1 140 168 130
9.14588 277.624 -94.7705 0 0 1 176 183 116
21.7434 269.8 -94.7538 0 0 1 177 183 183
24.2215 298.538 -86.927 0.146095 -0.295821 0.944005 64 88 60
23.911 274.912 -94.7888 0 0 1 175 176 122
11.5784 280.239 -94.7168 0 0 1 187 194 129
27.4818 296.711 -90.1049 0 0 1 125 128 112
28.2094 292.388 -90.324 0 0 1 114 124 122
15.2091 280.593 -94.7535 0 0 1 188 197 129
12.8977 293.861 -94.5336 0.122139 -0.263289 0.956954 187 187 141
17.703 300.346 -85.7289 0 0 1 129 143 104
19.7694 293.931 -88.0928 0 0 1 84 97 57
14.6163 281.689 -94.7351 0 0 1 177 178 132
17.8087 270.933 -94.8463 0 0 1 173 179 177
5.39136 268.738 -94.68 0 0 1 191 196 196
8.66238 271.813 -94.8038 0 0 1 151 153 101
5.80737 298.605 -94.6352 0 0 1 153 172 105
22.5182 301.344 -87.7784 0 0 1 37 46 39
5.5933 298.564 -94.6144 0 0 1 156 175 105
23.4782 280.226 -94.7872 0 0 1 220 222 222
14.5886 299.493 -89.7091 0 0 1 148 170 121
19.0153 302.633 -86.6765 0 0 1 64 68 44
22.929 272.751 -94.8489 0 0 1 191 194 189
29.3916 290.825 -90.8675 0 0 1 85 92 85
16.937 296.029 -94.74 0 0 1 185 188 147
18.5631 276.885 -94.8267 0 0 1 185 195 128
19.4574 277.36 -94.8167 0 0 1 186 192 128
30.3966 300.962 -89.3061 0 0 1 57 89 63
31.3648 301.3 -87.4735 0 0 1 52 90 64
13.1655 294.04 -94.5286 0 0 1 183 183 139
12.5742 272.849 -94.8546 0 0 1 172 175 128
24.4414 272.421 -94.9157 0 0 1 201 203 198
28.6988 270.453 -94.7863 0 0 1 198 201 199
14.9909 276.23 -94.8375 0 0 1 189 195 134
25.2497 271.297 -94.7964 0 0 1 202 205 202
29.4668 272.65 -94.8187 0 0 1 198 201 200
9.67927 279.802 -94.732 0 0 1 167 170 119
17.178 276.418 -94.9067 0 0 1 189 196 135
8.85928 304.079 -89.2829 0 0 1 132 162 107
5.98354 294.976 -94.5839 0 0 1 148 162 106
23.1968 269.267 -94.7958 0 0 1 205 205 204
31.2215 301.446 -87.6313 0 0 1 33 56 37
25.6636 296.127 -86.0442 0 0 1 144 155 127
17.1199 276.189 -94.8152 0 0 1 190 195 134
8.77676 277.652 -94.7962 0 0 1 184 189 123
25.8754 293.844 -87.0909 0 0 1 141 155 114
11.2924 293.316 -94.5261 0 0 1 196 196 153
20.375 303.573 -87.1011 0 0 1 55 56 46
20.1804 302.768 -86.524 0 0 1 56 63 49
14.9783 269.206 -94.7776 0 0 1 179 184 184
7.75594 276.533 -94.7479 0 0 1 179 184 133
21.3938 290.038 -94.5938 0 0 1 175 176 171
30.8724 300.46 -88.2696 0 0 1 37 65 43
28.5487 298.826 -88.7968 0 0 1 0 0 0
15.8534 280.076 -94.7817 0 0 1 186 195 125
9.14874 299.481 -94.7446 0 0 1 207 207 174
17.9215 291.299 -94.5989 0 0 1 195 195 195
9.41487 297.79 -94.5938 0 0 1 166 181 124
8.50787 298.829 -94.6651 0 0 1 158 171 118
27.3745 291.248 -90.4042 0 0 1 167 170 151
14.1149 301.69 -87.5924 0 0 1 138 165 126
27.7589 303.646 -87.4186 0 0 1 182 205 167
12.9569 279.995 -94.7972 0 0 1 188 194 130
27.9273 299.525 -88.1268 0 0 1 78 81 64
30.2208 291.3 -89.2834 0 0 1 143 152 144
27.5753 298.11 -87.4808 0 0 1 146 153 134
7.6436 295.314 -94.5468 0 0 1 169 179 127
10.5437 278.968 -94.7444 0 0 1 189 197 132
23.6579 293.635 -86.6611 0 0 1 156 179 140
23.07 302.042 -88.5091 0 0 1 0 0 0
14.9512 293.973 -94.6863 0 0 1 191 194 150
5.90098 300.829 -94.8358 0 0 1 180 190 135
26.8595 302.965 -87.8101 0 0 1 179 197 153
22.9547 287.447 -94.7098 0 0 1 220 221 221
13.9161 271.422 -94.7845 0 0 1 175 177 134
14.069 277.571 -94.7673 0 0 1 196 203 141
16.4988 273.248 -94.8879 0 0 1 163 170 115
15.9448 295.681 -94.6874 0 0 1 184 189 140
30.8407 299.504 -88.4469 0 0 1 81 81 65
16.7621 280.398 -94.7365 0 0 1 191 199 140
26.7809 276.335 -94.7982 0 0 1 218 219 219
20.2681 300.992 -86.4419 0 0 1 21 30 29
21.6863 277.377 -94.79 0 0 1 198 202 143
6.33941 289.466 -94.6005 0 0 1 207 207 207
18.307 274.39 -94.8374 0 0 1 168 178 121
29.857 290.272 -90.2799 0 0 1 118 136 118
21.2061 301.006 -85.4924 0 0 1 54 74 64
21.3515 301.612 -86.3668 0 0 1 28 39 36
23.5979 293.179 -86.0788 0 0 1 130 162 101
9.82738 291.307 -94.6757 0 0 1 196 196 196
23.9934 300.137 -87.6291 0 0 1 78 84 64
18.0244 281.09 -94.8636 0 0 1 186 193 134
28.9919 271.878 -94.8219 0 0 1 198 199 198
9.41257 296.154 -94.6722 0 0 1 175 187 143
26.2452 297.17 -86.4644 0 0 1 143 144 112
29.7162 303.367 -87.2958 0 0 1 119 164 101
26.9647 268.857 -94.8188 0 0 1 209 213 212
19.1119 297.682 -86.0373 0 0 1 112 130 103
21.1189 291.862 -88.6995 0 0 1 141 163 114
31.016 300.704 -101.006 0 0 1 172 193 138
24.2936 299.503 -87.442 0 0 1 24 40 31
18.9917 301.61 -86.952 0 0 1 53 61 49
17.7213 280.457 -94.7868 0 0 1 191 198 140
4.96158 270.291 -94.8223 0 0 1 202 206 205
23.6762 276.666 -94.8177 0 0 1 194 194 145
24.5133 269.93 -94.8026 0 0 1 195 199 199
9.55998 280.024 -94.7142 0 0 1 160 162 124
21.5737 299.092 -85.6036 0 0 1 70 80 59
16.5135 295.013 -94.6464 0 0 1 172 182 127
15.0581 281.602 -94.7034 0 0 1 180 187 130
12.9842 281.191 -94.7359 0 0 1 171 190 117
23.6289 293.352 -87.0423 0 0 1 137 161 110
24.6414 301.348 -87.7546 0 0 1 124 136 106
9.22815 296.639 -94.6965 0 0 1 174 191 140
17.8459 300.469 -85.433 0 0 1 138 156 102
24.5834 301.98 -87.8998 0 0 1 39 58 48
20.363 287.049 -94.7349 0 0 1 227 229 228
17.2504 281.541 -94.7627 0 0 1 187 192 143
7.16759 273.409 -94.7483 0 0 1 163 169 115
17.6774 300.175 -86.0778 0 0 1 78 98 71
20.3115 291.176 -94.7227 0 0 1 168 168 163
30.7356 295.412 -93.8471 0 0 1 78 85 65
7.41754 289.029 -94.6835 0 0 1 213 213 213
29.2524 302.318 -89.515 0 0 1 55 85 50
29.0603 284.927 -94.6531 0 0 1 202 202 201
8.14542 271.491 -94.7119 0 0 1 154 155 105
12.9527 302.932 -87.4774 0 0 1 115 134 110
25.3749 286.719 -94.6466 0 0 1 215 215 215
23.0672 302.055 -88.5338 0 0 1 0 0 0
31.1746 269.775 -94.7591 0 0 1 190 192 191
12.1425 278.452 -94.7493 0 0 1 193 202 138
7.55069 296.97 -94.6936 0 0 1 175 189 136
31.1647 290.386 -89.6896 0 0 1 142 146 122
20.1293 278.694 -94.7792 0 0 1 210 210 160
24.6809 277.857 -94.8014 0 0 1 219 221 221
18.5813 270.703 -94.7685 0 0 1 177 181 181
19.4985 274.197 -94.8122 0 0 1 171 181 121
27.0913 291.297 -90.1432 0 0 1 162 169 152
12.2132 280.657 -94.8002 0 0 1 175 185 113
30.2966 303.585 -87.2564 0 0 1 121 165 112
30.1612 303.266 -87.3112 0 0 1 127 173 105
21.4841 270.227 -94.8495 0 0 1 185 186 184
29.5837 269.083 -94.88 0 0 1 197 199 196
7.16894 272.131 -94.7225 0 0 1 147 148 100
22.3606 269.763 -94.7502 0 0 1 192 195 193
20.5569 296.995 -85.4024 0 0 1 66 91 53
16.6936 294.062 -94.5492 0 0 1 181 185 139
27.0232 271.715 -94.7799 0 0 1 207 209 209
27.9767 270.457 -94.8394 0 0 1 214 216 215
8.62959 299.704 -94.75 0 0 1 185 195 150
5.23244 294.285 -94.6429 0 0 1 159 170 108
11.5052 271.883 -94.7779 0 0 1 150 155 112
14.6952 301.751 -86.4618 0 0 1 159 188 122
27.4384 270.132 -94.856 0 0 1 191 196 194
26.9304 286.303 -94.5984 0 0 1 212 213 212
31.5428 301.758 -88.422 0 0 1 32 46 35
8.99282 276.575 -94.7308 0 0 1 182 191 132
28.3009 289.235 -94.5594 0 0 1 168 168 127
17.9888 295.612 -94.7381 0 0 1 184 187 147
20.1157 291.114 -94.6321 0 0 1 191 191 190
9.00371 298.077 -94.7489 0 0 1 164 177 123
22.9107 271.716 -94.8234 0 0 1 178 182 180
25.872 290.884 -90.0963 0 0 1 125 146 101
17.9098 297.221 -86.3734 0 0 1 162 185 157
31.1413 288.152 -93.8792 0 0 1 144 240 213
8.25409 300.482 -94.8295 0 0 1 182 196 142
30.7609 288.379 -94.5482 0 0 1 151 220 187
23.7931 296.264 -86.2557 0 0 1 81 96 67
29.4814 271.178 -94.7366 0 0 1 194 196 195
9.81184 303.828 -88.5654 0 0 1 143 164 125
29.1455 271.572 -94.7614 0 0 1 196 196 196
14.9295 296.25 -94.6894 0 0 1 183 190 134
28.0121 302.761 -90.7008 0 0 1 24 30 20
4.2858 296.97 -94.5689 0 0 1 164 165 117
16.394 299.226 -87.348 0 0 1 129 152 108
27.331 295.576 -90.6291 0 0 1 140 149 141
24.3379 301.754 -88.1636 0 0 1 41 52 42
24.6402 295.122 -86.4675 0 0 1 145 160 117
13.736 276.279 -94.8004 0 0 1 184 192 130
5.16781 295.056 -94.6266 0 0 1 162 162 108
14.9639 301.843 -86.4442 0 0 1 140 169 103
30.3846 282.013 -94.7418 0 0 1 220 222 222
20.5908 300.693 -84.7437 0 0 1 63 88 67
28.4356 284.892 -94.7846 0 0 1 211 213 213
12.2248 278.593 -94.7797 0 0 1 193 201 136
30.2829 288.615 -88.7971 0 0 1 147 164 139
22.2322 279.972 -94.7601 0 0 1 236 236 235
13.3833 294.696 -94.701 0 0 1 185 194 139
26.7005 303.126 -87.7645 0 0 1 156 183 131
25.9701 285.976 -94.7401 0 0 1 219 222 220
